ply
format ascii 1.0
element face 0
property list uint8 int32 vertex_indices
element vertex 1091
property float x
property float y
property float z
property uchar diffuse_red 
property uchar diffuse_green 
property uchar diffuse_blue 
end_header
-6.286440 10.509796 -29.834126  17  17  15
-6.286440 10.009451 -29.834126  0  0  2
-6.309647 6.235424 -29.958447  106  102  90
-6.309647 6.134941 -29.958447  86  79  63
-6.309647 5.933974 -29.958447  222  213  194
-6.309647 5.733007 -29.958447  187  189  203
-5.807225 -5.456531 -27.266901  133  105  97
-5.807225 -5.548043 -27.266901  121  93  86
-5.807225 -5.639555 -27.266901  113  77  59
-5.807225 -5.731066 -27.266901  102  66  48
-5.807225 -5.822578 -27.266901  95  49  23
-5.807225 -5.914089 -27.266901  89  42  16
-5.807225 -6.005601 -27.266901  88  32  0
-5.807225 -7.469786 -27.266901  107  29  0
-5.807225 -7.561297 -27.266901  114  35  0
-5.802022 -8.925609 -27.239028  37  63  0
-5.802022 -9.017028 -27.239028  42  69  0
-5.802022 -9.108447 -27.239028  57  80  1
-5.802022 -9.199865 -27.239028  75  97  18
-5.802022 -9.291284 -27.239028  99  110  34
-5.802022 -9.382703 -27.239028  109  120  44
-5.906747 -10.773114 -27.800054  111  115  108
-5.908763 -10.870328 -27.810857  111  115  108
-5.910757 -10.967570 -27.821539  108  111  109
-5.912746 -11.064872 -27.832192  104  107  105
-5.912746 -11.158268 -27.832192  101  116  81
-5.912746 -12.279018 -27.832192  84  89  87
-5.912746 -12.372414 -27.832192  65  69  68
-5.912746 -12.465810 -27.832192  56  64  57
-5.912746 -12.559206 -27.832192  59  67  61
-5.912746 -12.652602 -27.832192  61  70  56
-6.664469 -19.818619 -31.859278  13  5  15
-6.664469 -19.925438 -31.859278  14  7  14
-6.572755 15.009211 -30.814366  120  139  167
-6.572755 14.905875 -30.814366  118  137  165
-6.572755 14.802538 -30.814366  110  131  167
-6.572755 14.699202 -30.814366  103  124  160
-6.572755 14.595865 -30.814366  99  121  162
-6.572648 14.285584 -30.813803  106  130  171
-6.572648 14.182249 -30.813803  107  130  180
-6.572648 14.078915 -30.813803  103  126  176
-6.559912 12.912741 -30.746773  76  110  148
-6.559912 12.809630 -30.746773  76  111  148
-6.559912 12.706519 -30.746773  50  86  120
-6.559912 12.603407 -30.746773  7  42  77
-6.559912 12.294074 -30.746773  61  59  75
-6.412957 11.868694 -29.973326  50  48  64
-6.412492 11.566098 -29.970876  21  16  26
-6.412430 11.465443 -29.970552  13  8  18
-6.412379 11.364811 -29.970282  7  5  10
-6.412293 11.264108 -29.969829  6  5  9
-6.412293 11.163587 -29.969829  7  9  8
-6.412293 11.063066 -29.969829  13  14  13
-6.412293 10.962544 -29.969829  15  18  14
-6.412293 10.862023 -29.969829  14  16  12
-6.411541 10.056440 -29.965870  52  52  54
-6.421633 6.450718 -30.018986  103  100  95
-6.421633 6.350033 -30.018986  90  85  74
-6.421633 6.249348 -30.018986  72  67  56
-6.421633 6.148663 -30.018986  55  48  32
-6.421633 5.745922 -30.018986  186  188  203
-5.920882 -4.833434 -27.383456  137  108  97
-5.920882 -4.925334 -27.383456  128  96  97
-5.920882 -5.017234 -27.383456  122  90  92
-5.920882 -5.109134 -27.383456  104  86  92
-5.920882 -5.201034 -27.383456  89  71  77
-5.920882 -5.292934 -27.383456  72  50  51
-5.920882 -5.384834 -27.383456  56  35  36
-5.920882 -5.476734 -27.383456  56  28  21
-5.920882 -6.947136 -27.383456  111  26  0
-5.898736 -7.378274 -27.266901  106  25  0
-5.898736 -7.469786 -27.266901  100  21  0
-5.913190 -8.681497 -27.342971  60  83  0
-5.913190 -8.773262 -27.342971  59  80  0
-5.913190 -8.865027 -27.342971  66  86  3
-5.913190 -8.956792 -27.342971  73  99  18
-5.913190 -9.048557 -27.342971  86  112  31
-5.913190 -9.140322 -27.342971  99  122  43
-5.961477 -10.329607 -27.597115  103  105  112
-5.962653 -10.424386 -27.603305  100  101  108
-5.962653 -10.517019 -27.603305  93  96  90
-5.962653 -10.609652 -27.603305  83  86  80
-5.962653 -10.702285 -27.603305  74  78  71
-5.962653 -10.794918 -27.603305  66  70  63
-5.962653 -10.887551 -27.603305  58  61  59
-5.962653 -10.980184 -27.603305  52  55  53
-5.962653 -12.091779 -27.603305  73  73  76
-5.962653 -12.184412 -27.603305  37  41  40
-5.962653 -12.277045 -27.603305  18  22  21
-5.962653 -12.369677 -27.603305  30  38  32
-5.962653 -12.462310 -27.603305  56  64  58
-6.771288 -19.711799 -31.859278  18  10  20
-6.771288 -19.818619 -31.859278  15  8  18
-6.532637 11.909958 -30.072361  11  14  13
-6.532082 11.807908 -30.069490  3  2  4
-6.531538 11.705901 -30.066677  9  8  10
-6.531174 11.604291 -30.064793  11  9  13
-6.531174 11.503453 -30.064793  13  11  15
-6.531174 11.402615 -30.064793  20  20  26
-6.531174 11.301778 -30.064793  17  18  24
-6.525590 9.376231 -30.035914  0  0  0
-6.525590 9.275490 -30.035914  1  2  0
-6.525590 9.174748 -30.035914  9  10  7
-6.525590 9.074006 -30.035914  10  11  8
-6.525590 8.973265 -30.035914  40  40  44
-6.536949 8.891128 -30.094666  67  67  71
-6.535466 6.668638 -30.086996  98  97  97
-6.535466 6.567726 -30.086996  86  84  77
-6.535466 6.466814 -30.086996  72  70  63
-6.535466 6.365902 -30.086996  59  55  40
-6.535466 6.164078 -30.086996  33  27  6
-6.535466 6.063167 -30.086996  137  131  110
-6.535466 5.962255 -30.086996  228  220  195
-6.535466 5.861343 -30.086996  221  214  189
-6.535466 5.760431 -30.086996  175  177  191
-6.023507 -4.289245 -27.438932  140  110  105
-6.023507 -4.381330 -27.438932  126  82  61
-6.023507 -4.473415 -27.438932  120  76  55
-6.023507 -4.565500 -27.438932  108  69  47
-6.023507 -4.657585 -27.438932  99  60  38
-6.023507 -4.749670 -27.438932  88  50  33
-6.023507 -4.841755 -27.438932  77  40  23
-6.023507 -6.223030 -27.438932  111  36  0
-6.004678 -7.488196 -27.341536  95  28  0
-6.004678 -8.772841 -27.341536  109  117  94
-6.004678 -8.864601 -27.341536  112  120  97
-6.026790 -9.635665 -27.455910  101  108  93
-6.030957 -9.734847 -27.477463  99  107  90
-6.031268 -9.827593 -27.479075  97  105  88
-6.031892 -9.920887 -27.482303  93  101  81
-6.032530 -10.014227 -27.485601  87  95  75
-6.032530 -10.106468 -27.485601  80  90  61
-6.032530 -10.198709 -27.485601  76  85  56
-6.032530 -10.290949 -27.485601  56  67  23
-6.032530 -10.383190 -27.485601  54  66  22
-6.032530 -10.475430 -27.485601  50  66  0
-6.032530 -10.567671 -27.485601  46  62  0
-6.032530 -10.659911 -27.485601  44  63  0
-6.740542 -19.080721 -31.147732  18  8  21
-6.740542 -19.185168 -31.147732  15  5  18
-6.779435 17.385972 -30.814405  167  171  163
-6.766134 13.118963 -30.746773  74  102  129
-6.766134 13.015852 -30.746773  74  101  128
-6.625771 11.792851 -30.033060  10  9  11
-6.625771 11.692119 -30.033060  23  22  24
-6.625771 10.886262 -30.033060  54  55  65
-6.632130 9.789418 -30.065395  126  126  128
-6.636759 9.696659 -30.088930  110  110  111
-6.636759 9.393904 -30.088930  71  72  70
-6.636759 9.292985 -30.088930  91  92  90
-6.636759 9.192067 -30.088930  119  120  117
-6.636759 9.091149 -30.088930  134  135  131
-6.636759 8.990230 -30.088930  132  132  136
-6.649644 8.910059 -30.154447  132  132  136
-6.648452 6.986926 -30.148389  107  105  111
-6.648452 6.885810 -30.148389  93  91  97
-6.648452 6.784693 -30.148389  77  75  76
-6.648452 6.683577 -30.148389  65  64  64
-6.648452 6.582460 -30.148389  56  54  47
-6.648452 6.481344 -30.148389  47  45  38
-6.648452 6.279111 -30.148389  32  28  13
-6.648452 6.177994 -30.148389  35  29  8
-6.648452 6.076878 -30.148389  153  147  126
-6.648452 5.975761 -30.148389  237  229  204
-6.648452 5.874644 -30.148389  218  211  186
-6.648452 5.773528 -30.148389  173  175  189
-6.648452 5.672411 -30.148389  132  134  149
-6.115668 -4.197209 -27.439314  68  38  33
-6.115674 -4.289299 -27.439348  58  28  23
-6.106420 -7.408787 -27.392294  102  29  0
-6.106420 -7.500716 -27.392294  104  37  0
-6.106420 -7.684575 -27.392294  142  100  58
-6.116576 -8.987080 -27.443932  101  119  93
-6.116837 -9.079585 -27.445261  96  114  89
-6.116925 -9.171828 -27.445706  96  109  81
-6.117018 -9.264083 -27.446182  92  105  77
-6.117018 -9.356192 -27.446182  100  98  70
-6.117018 -9.448301 -27.446182  98  96  68
-6.117018 -9.540410 -27.446182  86  93  78
-6.117018 -9.632520 -27.446182  74  82  66
-6.117018 -9.724629 -27.446182  57  64  47
-6.117018 -9.816738 -27.446182  41  49  32
-6.117018 -9.908847 -27.446182  33  41  20
-6.117018 -10.000956 -27.446182  31  39  19
-6.117018 -11.014157 -27.446182  42  62  0
-6.117018 -11.106266 -27.446182  44  64  0
-6.124771 -12.135761 -27.485601  61  69  66
-6.844990 -18.662930 -31.147732  66  64  61
-6.844990 -18.767378 -31.147732  46  44  41
-6.844990 -18.871825 -31.147732  25  23  22
-6.844990 -18.976273 -31.147732  12  10  8
-6.844990 -19.080721 -31.147732  16  6  19
-6.882772 17.385972 -30.814405  179  181  171
-6.882772 17.282635 -30.814405  143  152  153
-6.880934 13.661597 -30.805214  85  105  123
-6.880934 13.558291 -30.805214  91  110  127
-6.880934 13.454985 -30.805214  96  114  131
-6.880934 13.351679 -30.805214  106  122  138
-6.869246 13.222074 -30.746773  118  134  150
-6.869246 13.118963 -30.746773  141  156  168
-6.758285 12.769890 -30.191971  162  177  188
-6.755109 12.256804 -30.176088  70  77  87
-6.754740 11.952409 -30.174243  9  11  21
-6.754740 11.446395 -30.174243  23  23  17
-6.754740 11.345193 -30.174243  63  62  56
-6.754740 11.243990 -30.174243  120  121  109
-6.750806 9.618059 -30.154575  124  124  126
-6.750806 9.516922 -30.154575  127  127  129
-6.753190 7.193867 -30.166497  101  95  103
-6.753190 7.092691 -30.166497  88  83  91
-6.753190 6.991514 -30.166497  76  71  77
-6.753190 6.890337 -30.166497  62  58  63
-6.753190 6.384452 -30.166497  51  44  34
-6.753190 6.283275 -30.166497  37  29  19
-6.753190 6.080922 -30.166497  169  159  144
-6.753190 5.979745 -30.166497  238  227  209
-6.753190 5.878568 -30.166497  211  199  181
-6.202792 -7.414191 -27.414504  99  28  4
-6.202792 -8.426231 -27.414504  105  111  104
-6.207741 -8.525246 -27.439252  102  109  101
-6.207756 -8.617353 -27.439324  102  104  95
-6.207787 -8.709484 -27.439480  99  102  92
-6.207805 -8.801597 -27.439570  87  100  88
-6.207851 -8.893753 -27.439801  82  94  83
-6.207851 -8.985841 -27.439801  64  91  71
-6.207851 -9.077929 -27.439801  54  81  61
-6.207851 -9.170017 -27.439801  48  70  42
-6.207851 -9.262105 -27.439801  39  61  33
-6.207851 -9.354193 -27.439801  44  49  17
-6.207851 -9.446281 -27.439801  40  45  13
-6.207851 -9.538369 -27.439801  30  54  0
-6.207851 -11.011775 -27.439801  37  54  0
-6.207851 -11.564302 -27.439801  81  82  65
-6.843330 -18.153397 -30.617195  67  64  63
-6.843330 -18.256076 -30.617195  48  46  44
-6.949437 -18.662930 -31.147732  28  26  26
-6.986109 17.385972 -30.814405  179  181  171
-6.986109 17.282635 -30.814405  150  159  159
-6.985986 14.285584 -30.813803  84  109  129
-6.985986 14.182249 -30.813803  85  107  125
-6.985986 14.078915 -30.813803  91  113  131
-6.984240 13.971514 -30.805214  101  122  141
-6.984240 13.868209 -30.805214  114  135  154
-6.984240 13.764903 -30.805214  130  150  169
-6.984240 13.661597 -30.805214  148  168  187
-6.984240 13.558291 -30.805214  167  185  203
-6.984240 13.454985 -30.805214  177  195  213
-6.862254 13.079712 -30.205286  190  207  222
-6.862028 12.977904 -30.204173  187  203  218
-6.861649 12.875769 -30.202309  184  199  210
-6.861306 12.773724 -30.200620  179  194  206
-6.860228 12.163737 -30.195322  63  70  80
-6.860228 12.062464 -30.195322  16  19  28
-6.860228 11.961192 -30.195322  9  11  20
-6.860228 11.859919 -30.195322  39  37  44
-6.860228 11.758646 -30.195322  87  85  91
-6.858355 11.653625 -30.186107  138  136  137
-6.858355 11.552383 -30.186107  184  181  182
-6.858355 11.451141 -30.186107  207  206  201
-6.858355 11.349899 -30.186107  213  212  206
-6.858355 11.248656 -30.186107  216  217  205
-6.865153 7.511720 -30.219540  133  133  140
-6.865151 7.410364 -30.219533  107  100  109
-6.865151 7.309010 -30.219533  92  85  94
-6.865151 7.207657 -30.219533  72  67  75
-6.865151 7.106303 -30.219533  58  52  60
-6.865151 7.004949 -30.219533  48  43  49
-6.865151 6.396827 -30.219533  51  44  34
-6.865151 6.295474 -30.219533  34  26  16
-6.865151 6.092766 -30.219533  182  172  157
-6.865151 5.991413 -30.219533  239  228  210
-6.865151 5.890059 -30.219533  210  199  181
-6.314921 -4.391270 -27.513480  114  31  0
-6.314921 -4.483603 -27.513480  115  33  0
-6.294795 -7.414191 -27.414504  100  29  5
-6.294795 -7.506195 -27.414504  118  63  41
-6.294795 -7.874209 -27.414504  97  113  117
-6.294795 -7.966213 -27.414504  89  106  109
-6.294795 -8.058216 -27.414504  94  95  111
-6.294795 -8.150220 -27.414504  90  91  108
-6.294795 -8.242223 -27.414504  82  90  94
-6.294795 -8.334227 -27.414504  79  86  90
-6.299673 -8.432947 -27.438493  75  82  74
-6.299685 -8.525048 -27.438552  65  72  64
-6.299685 -8.617132 -27.438552  55  57  48
-6.299685 -8.709215 -27.438552  45  47  37
-6.299685 -8.801299 -27.438552  32  44  33
-6.299685 -8.893383 -27.438552  31  44  32
-6.299685 -8.985466 -27.438552  21  49  29
-6.299685 -11.195476 -27.438552  88  101  34
-6.299939 -11.564302 -27.439801  96  97  80
-6.301236 -11.658921 -27.446182  88  88  72
-6.301236 -11.751030 -27.446182  86  85  86
-6.946009 -17.845359 -30.617195  82  77  75
-6.946009 -17.948038 -30.617195  60  56  54
-6.946009 -18.050717 -30.617195  47  43  41
-6.946009 -18.153397 -30.617195  29  26  25
-7.089445 17.385972 -30.814405  179  180  169
-7.089437 14.802538 -30.814366  86  113  133
-7.089437 14.699202 -30.814366  88  115  135
-7.089437 14.595865 -30.814366  98  124  141
-7.089321 14.492253 -30.813803  112  138  155
-7.089321 14.388918 -30.813803  128  154  168
-7.089321 14.285584 -30.813803  138  164  179
-7.089321 14.182249 -30.813803  177  194  200
-7.089321 14.078915 -30.813803  180  198  204
-7.087546 13.971514 -30.805214  184  201  207
-7.087546 13.868209 -30.805214  185  201  208
-7.087546 13.764903 -30.805214  185  199  206
-7.087546 13.661597 -30.805214  184  198  205
-6.900382 12.038542 -29.899584  212  223  198
-6.900382 11.938255 -29.899584  203  209  187
-6.900382 11.837967 -29.899584  196  202  180
-6.900382 11.737680 -29.899584  211  211  194
-6.900382 11.637393 -29.899584  224  224  207
-6.900382 11.537106 -29.899584  223  220  208
-6.981064 7.835505 -30.289982  119  118  123
-6.981066 7.733918 -30.289990  105  103  109
-6.981066 7.632330 -30.289990  84  83  94
-6.981066 7.530741 -30.289990  69  68  79
-6.981066 7.429153 -30.289990  68  59  63
-6.981066 7.327564 -30.289990  61  52  56
-6.981066 6.616444 -30.289990  47  38  38
-6.981066 6.413267 -30.289990  51  39  36
-6.981066 6.108502 -30.289990  200  186  179
-6.981066 6.006913 -30.289990  243  227  218
-6.981066 5.905325 -30.289990  213  196  188
-6.981066 5.702148 -30.289990  121  123  138
-6.407254 -6.237940 -27.513480  106  25  0
-6.386799 -7.414191 -27.414504  105  42  2
-6.386799 -7.506195 -27.414504  133  80  34
-6.386799 -7.874209 -27.414504  73  83  56
-6.386799 -7.966213 -27.414504  64  75  47
-6.386799 -8.058216 -27.414504  50  71  13
-6.386799 -8.150220 -27.414504  44  65  6
-6.386799 -8.242223 -27.414504  35  59  0
-6.386799 -8.334227 -27.414504  31  56  0
-6.391769 -10.827141 -27.438552  33  56  0
-6.391769 -10.919225 -27.438552  39  62  0
-6.391769 -11.011309 -27.438552  70  80  32
-6.888234 -17.112893 -29.840803  69  62  66
-6.888234 -17.212985 -29.840803  63  56  60
-6.888234 -17.313076 -29.840803  53  48  49
-7.048688 -17.845359 -30.617195  46  40  42
-7.048688 -17.948038 -30.617195  27  23  24
-7.192782 17.385972 -30.814405  186  187  176
-7.192782 17.282635 -30.814405  171  179  180
-7.192782 17.179299 -30.814405  145  153  154
-7.192782 15.422577 -30.814405  85  114  141
-7.192782 15.319240 -30.814405  87  116  143
-7.192782 15.215904 -30.814405  91  119  143
-7.192782 15.112567 -30.814405  93  122  145
-7.192774 15.009211 -30.814366  119  146  168
-7.192774 14.905875 -30.814366  134  162  183
-7.192774 14.802538 -30.814366  150  177  197
-7.192774 14.699202 -30.814366  159  186  206
-7.192774 14.595865 -30.814366  170  196  213
-7.192655 14.492253 -30.813803  179  206  223
-7.192655 14.388918 -30.813803  180  206  221
-7.192655 14.285584 -30.813803  174  200  215
-7.025083 11.886407 -30.015838  191  197  175
-7.025083 11.785732 -30.015838  202  201  185
-7.025083 11.685057 -30.015838  181  181  164
-7.095647 8.056420 -30.351860  107  104  104
-7.095648 7.954627 -30.351864  98  95  95
-7.095647 7.852831 -30.351860  85  84  89
-7.095647 7.751036 -30.351860  67  65  71
-7.095646 7.649239 -30.351854  50  49  60
-7.095645 6.631291 -30.351850  49  39  39
-7.095645 6.529496 -30.351850  50  41  41
-7.095645 6.427701 -30.351850  54  43  39
-7.095645 6.020522 -30.351850  239  223  214
-7.095645 5.918728 -30.351850  204  188  179
-6.493069 -6.139502 -27.482441  107  26  0
-6.493069 -6.231732 -27.482441  107  26  0
-6.493069 -7.338492 -27.482441  98  35  0
-6.493069 -7.430722 -27.482441  117  54  13
-6.493069 -7.615182 -27.482441  135  82  36
-6.493069 -7.799643 -27.482441  69  47  7
-6.493069 -7.891873 -27.482441  39  49  22
-6.806792 -16.348701 -28.976358  67  57  65
-6.806792 -16.445911 -28.976358  61  53  59
-6.988325 -17.012802 -29.840803  54  45  51
-6.988325 -17.112893 -29.840803  43  36  40
-6.988325 -17.212985 -29.840803  32  25  29
-6.988325 -17.313076 -29.840803  20  14  16
-7.296118 17.179299 -30.814405  154  159  165
-7.296118 15.939260 -30.814405  87  105  131
-7.296118 15.835923 -30.814405  90  109  140
-7.296118 15.732587 -30.814405  98  116  148
-7.296118 15.629250 -30.814405  114  131  159
-7.296118 15.525913 -30.814405  132  149  177
-7.296118 15.422577 -30.814405  151  166  188
-7.296118 15.319240 -30.814405  163  178  200
-7.296118 15.215904 -30.814405  174  186  201
-7.296118 15.112567 -30.814405  178  190  205
-7.296110 15.009211 -30.814366  192  201  209
-7.296110 14.905875 -30.814366  189  197  206
-7.296110 14.802538 -30.814366  188  193  197
-7.205625 8.373184 -30.390220  121  120  121
-7.205626 8.271263 -30.390223  105  103  103
-7.205627 8.169341 -30.390227  92  90  90
-7.205628 8.067419 -30.390230  76  72  71
-7.205629 7.965498 -30.390235  62  59  58
-7.205629 7.863576 -30.390235  54  49  48
-7.205631 6.844352 -30.390247  57  37  30
-7.205631 6.742429 -30.390247  58  39  32
-7.205631 6.640506 -30.390247  55  38  32
-7.205631 6.538583 -30.390247  55  38  32
-7.205631 6.436661 -30.390247  54  43  41
-7.205631 5.927047 -30.390247  190  191  201
-6.588672 -5.865763 -27.498250  104  28  0
-6.588672 -7.342287 -27.498250  102  47  8
-6.588672 -7.619135 -27.498250  90  69  24
-6.588672 -7.803700 -27.498250  40  51  0
-6.575936 -10.366723 -27.438552  33  51  0
-6.575936 -10.458806 -27.438552  33  47  0
-6.575936 -10.735058 -27.438552  42  56  0
-6.575936 -10.827141 -27.438552  58  73  5
-6.575936 -10.919225 -27.438552  73  88  19
-6.843343 -15.522273 -28.692021  74  67  67
-6.843343 -15.618535 -28.692021  69  62  62
-6.904002 -15.862652 -28.976358  62  57  55
-6.904002 -15.959862 -28.976358  55  50  49
-6.904002 -16.057072 -28.976358  48  45  43
-6.904002 -16.154282 -28.976358  45  42  39
-6.904002 -16.251491 -28.976358  33  28  30
-6.904002 -16.348701 -28.976358  29  24  26
-7.088416 -17.012802 -29.840803  19  14  15
-7.399455 16.869289 -30.814405  82  105  116
-7.399455 16.455943 -30.814405  81  106  131
-7.399455 16.352606 -30.814405  80  105  130
-7.399455 16.249270 -30.814405  88  110  136
-7.399455 16.145933 -30.814405  104  126  152
-7.399455 16.042596 -30.814405  127  146  171
-7.399455 15.939260 -30.814405  142  160  186
-7.399455 15.835923 -30.814405  166  184  216
-7.399455 15.732587 -30.814405  167  186  217
-7.399455 15.629250 -30.814405  172  189  217
-7.399455 15.525913 -30.814405  176  194  221
-7.296733 8.561888 -30.340304  119  120  122
-7.320096 8.492481 -30.448133  96  96  97
-7.320096 8.390365 -30.448133  77  77  78
-7.320096 8.288250 -30.448133  66  64  64
-7.320102 8.186142 -30.448159  59  57  57
-7.320109 7.062877 -30.448193  58  42  33
-7.320109 6.858645 -30.448193  61  42  35
-7.320109 6.552297 -30.448193  56  39  33
-7.320109 6.450181 -30.448193  52  42  40
-7.320109 6.143834 -30.448193  214  211  215
-7.320109 5.939602 -30.448193  186  188  198
-6.666543 -4.012127 -27.431737  91  35  14
-6.666728 -4.748740 -27.432587  115  33  0
-6.666728 -4.840803 -27.432587  112  30  0
-6.669462 -5.855861 -27.445207  96  19  0
-6.669462 -5.947967 -27.445207  101  25  0
-6.669462 -6.040073 -27.445207  104  27  0
-6.668528 -6.131332 -27.440898  111  34  0
-6.668528 -7.236431 -27.440898  102  26  0
-6.668528 -7.328522 -27.440898  120  65  26
-6.668020 -9.906304 -27.438552  29  56  0
-6.668020 -9.998388 -27.438552  24  51  0
-6.668020 -10.090471 -27.438552  25  48  0
-6.668020 -10.182555 -27.438552  27  50  0
-6.668020 -10.274639 -27.438552  38  55  0
-6.668020 -10.366723 -27.438552  49  67  0
-6.668020 -10.458806 -27.438552  67  80  7
-6.668020 -10.550890 -27.438552  78  91  18
-6.668020 -10.642974 -27.438552  82  95  25
-6.906392 -15.060581 -28.538732  65  56  59
-6.939605 -15.233487 -28.692021  61  53  55
-6.939605 -15.329749 -28.692021  51  42  44
-6.939605 -15.426011 -28.692021  48  39  41
-6.939605 -15.522273 -28.692021  42  35  35
-6.939605 -15.618535 -28.692021  37  30  30
-7.001211 -15.862652 -28.976358  32  27  26
-7.001211 -15.959862 -28.976358  30  25  24
-7.502791 17.179299 -30.814405  192  195  195
-7.502791 17.075962 -30.814405  177  189  188
-7.502791 16.972626 -30.814405  158  170  169
-7.502791 16.869289 -30.814405  135  153  156
-7.502791 16.765952 -30.814405  125  143  146
-7.502791 16.662616 -30.814405  110  130  140
-7.502791 16.559279 -30.814405  127  147  157
-7.502791 16.455943 -30.814405  150  168  182
-7.502791 16.352606 -30.814405  165  183  197
-7.502791 16.249270 -30.814405  175  189  204
-7.502791 16.145933 -30.814405  181  195  209
-7.502791 16.042596 -30.814405  190  201  214
-7.414362 8.889763 -30.412451  133  129  136
-7.414362 8.787767 -30.412451  111  108  115
-7.414362 8.685770 -30.412451  94  90  94
-7.414362 8.583773 -30.412451  79  76  80
-7.422212 8.492481 -30.448133  67  63  64
-7.422212 8.390365 -30.448133  57  53  54
-7.437476 7.694520 -30.517516  49  43  32
-7.437479 6.978095 -30.517529  57  43  36
-7.437479 6.875748 -30.517529  55  39  32
-7.437479 6.159319 -30.517529  220  218  222
-7.437479 5.954625 -30.517529  174  177  186
-7.437479 5.852278 -30.517529  143  139  139
-6.755050 -4.746245 -27.415578  91  27  0
-6.755050 -5.758324 -27.415578  100  24  0
-6.755050 -5.850331 -27.415578  92  26  0
-6.755050 -6.034345 -27.415578  138  91  60
-6.760620 -7.236431 -27.440898  112  45  17
-6.760104 -9.353801 -27.438552  29  52  0
-6.760104 -9.445885 -27.438552  29  52  0
-6.760104 -9.537969 -27.438552  21  38  0
-6.760104 -9.630053 -27.438552  28  44  0
-6.760104 -9.722136 -27.438552  36  53  0
-6.760104 -9.814220 -27.438552  44  61  8
-6.760104 -9.906304 -27.438552  53  71  21
-6.760104 -9.998388 -27.438552  67  84  35
-6.760104 -10.090471 -27.438552  84  97  56
-6.926555 -14.321155 -28.195149  75  71  72
-6.926555 -14.415761 -28.195149  71  67  68
-7.002143 -14.677577 -28.538732  66  60  62
-7.002143 -14.773328 -28.538732  58  53  54
-7.002143 -14.869079 -28.538732  50  43  44
-7.002143 -14.964830 -28.538732  41  34  35
-7.002143 -15.060581 -28.538732  35  27  27
-7.035867 -15.233487 -28.692021  32  24  25
-7.035867 -15.329749 -28.692021  31  22  22
-7.606128 16.765952 -30.814405  172  190  194
-7.606128 16.662616 -30.814405  179  200  209
-7.606128 16.559279 -30.814405  177  197  207
-7.541115 9.129229 -30.523301  115  112  121
-7.541115 9.026863 -30.523301  104  100  109
-7.541115 8.924496 -30.523301  85  81  88
-7.516358 8.787767 -30.412451  66  63  70
-7.516358 8.685770 -30.412451  57  53  57
-7.553719 7.711527 -30.579736  53  47  36
-7.553719 7.506418 -30.579736  56  51  37
-7.553719 7.301310 -30.579736  54  45  34
-7.553719 6.788538 -30.579736  82  65  59
-7.553719 6.583429 -30.579736  105  90  84
-7.553719 6.480875 -30.579736  106  97  95
-7.553719 6.173212 -30.579736  209  207  211
-7.553719 5.968103 -30.579736  169  172  181
-6.847970 -4.562803 -27.419668  94  24  0
-6.847970 -4.654824 -27.419668  96  26  0
-6.847970 -4.746845 -27.419668  92  28  0
-6.847970 -5.667053 -27.419668  99  23  0
-6.847970 -5.759074 -27.419668  102  26  0
-6.852712 -7.144339 -27.440898  96  29  1
-6.852712 -7.236431 -27.440898  117  50  23
-6.852712 -7.420614 -27.440898  120  77  37
-6.852712 -7.512705 -27.440898  79  69  14
-6.852712 -7.604797 -27.440898  62  52  0
-6.852188 -8.985466 -27.438552  32  56  0
-6.852188 -9.077550 -27.438552  31  55  0
-6.852188 -9.169634 -27.438552  33  57  0
-6.852188 -9.261718 -27.438552  41  65  0
-6.852188 -9.353801 -27.438552  53  77  0
-6.852188 -9.445885 -27.438552  62  85  0
-6.852188 -9.537969 -27.438552  75  91  36
-6.852188 -9.630053 -27.438552  82  98  43
-6.940101 -13.586560 -27.832192  79  74  69
-6.940101 -13.679956 -27.832192  75  71  66
-6.940101 -13.773352 -27.832192  70  66  60
-7.021161 -14.037338 -28.195149  64  60  54
-7.021161 -14.131944 -28.195149  56  51  46
-7.021161 -14.226549 -28.195149  49  45  39
-7.021161 -14.321155 -28.195149  35  31  32
-7.021161 -14.415761 -28.195149  31  27  28
-7.097894 -14.677577 -28.538732  28  22  24
-7.097894 -14.773328 -28.538732  25  20  21
-7.097894 -14.869079 -28.538732  27  19  21
-7.643481 9.436328 -30.523301  144  139  155
-7.643481 9.333961 -30.523301  117  112  126
-7.643481 9.231595 -30.523301  93  88  102
-7.643481 9.129229 -30.523301  77  66  75
-7.643481 9.026863 -30.523301  68  58  66
-7.643481 8.924496 -30.523301  56  46  52
-7.671679 8.141229 -30.647704  53  44  31
-7.671679 7.832886 -30.647706  58  49  32
-7.671679 7.730105 -30.647706  60  51  32
-7.671678 7.318981 -30.647701  70  65  56
-7.671678 7.216200 -30.647701  68  62  54
-7.671678 7.113419 -30.647701  70  61  54
-7.671678 7.010638 -30.647701  78  69  63
-7.671678 6.907857 -30.647701  90  79  72
-7.671678 6.805076 -30.647701  95  84  77
-7.671678 6.599514 -30.647701  105  96  90
-7.671678 6.188391 -30.647701  219  219  222
-7.671678 6.085610 -30.647701  207  210  219
-7.671678 5.982829 -30.647701  167  170  179
-7.671678 5.880048 -30.647701  134  130  127
-6.940179 -4.378872 -27.420498  90  21  0
-6.940179 -4.470896 -27.420498  98  28  0
-6.940179 -4.562919 -27.420498  104  51  20
-6.940179 -4.654943 -27.420498  129  76  45
-6.940179 -5.575179 -27.420498  102  22  0
-6.940179 -5.667202 -27.420498  95  19  0
-6.944803 -7.144339 -27.440898  96  47  22
-6.944803 -7.420614 -27.440898  82  58  21
-6.944803 -7.512705 -27.440898  52  54  0
-6.944803 -8.341529 -27.440898  32  49  0
-6.944803 -8.433621 -27.440898  34  49  0
-6.944803 -8.525712 -27.440898  40  56  0
-6.944803 -8.617804 -27.440898  49  62  0
-6.944803 -8.709896 -27.440898  53  67  2
-6.944803 -8.801987 -27.440898  62  73  15
-6.944271 -8.893383 -27.438552  71  82  25
-6.944271 -8.985466 -27.438552  84  94  42
-6.944271 -9.077550 -27.438552  93  103  51
-6.981615 -13.018108 -27.603305  70  65  63
-6.981615 -13.110741 -27.603305  66  61  60
-7.033496 -13.306373 -27.832192  64  59  57
-7.033496 -13.399769 -27.832192  55  50  49
-7.033496 -13.493165 -27.832192  50  45  44
-7.033496 -13.586560 -27.832192  42  37  37
-7.033496 -13.679956 -27.832192  34  29  29
-7.033496 -13.773352 -27.832192  30  24  25
-7.115767 -14.037338 -28.195149  28  23  24
-7.752013 9.752540 -30.550106  155  151  166
-7.745847 9.641060 -30.523301  133  129  145
-7.745847 9.538694 -30.523301  109  103  119
-7.745847 9.436328 -30.523301  84  79  94
-7.745847 9.333961 -30.523301  62  57  71
-7.745847 9.231595 -30.523301  49  43  57
-7.805204 8.179547 -30.781373  57  47  35
-7.805204 8.076321 -30.781373  57  48  36
-7.805206 7.869870 -30.781382  54  45  29
-7.805207 7.766645 -30.781385  55  46  28
-7.805207 7.663418 -30.781385  58  49  30
-7.805207 7.353739 -30.781385  95  90  81
-7.805207 7.250512 -30.781385  94  88  80
-7.805207 7.147285 -30.781385  87  77  71
-7.805207 7.044059 -30.781385  81  72  66
-7.805207 6.940832 -30.781385  84  73  67
-7.805207 6.837606 -30.781385  88  77  70
-7.805207 6.734379 -30.781385  52  43  37
-7.805207 6.631153 -30.781385  78  69  63
-7.805207 6.218247 -30.781385  216  216  220
-7.805207 6.115020 -30.781385  195  198  207
-7.805207 5.908567 -30.781385  123  120  117
-7.032172 -4.286831 -27.420366  108  31  0
-7.032172 -4.378855 -27.420366  102  32  0
-7.032172 -4.930993 -27.420366  138  102  80
-7.032172 -5.575155 -27.420366  100  20  0
-7.032172 -6.219317 -27.420366  115  111  106
-7.036895 -7.881072 -27.440898  33  63  0
-7.036895 -7.973163 -27.440898  29  59  0
-7.036895 -8.065255 -27.440898  46  64  0
-7.036895 -8.157346 -27.440898  51  69  0
-7.036895 -8.249438 -27.440898  58  74  0
-7.036895 -8.341529 -27.440898  64  80  5
-7.036895 -8.433621 -27.440898  72  87  16
-7.036895 -8.525712 -27.440898  81  96  26
-7.036895 -8.617804 -27.440898  91  104  40
-7.047176 -12.596963 -27.485601  69  64  62
-7.047176 -12.689204 -27.485601  62  57  55
-7.074248 -12.832842 -27.603305  54  49  47
-7.074248 -12.925475 -27.603305  46  41  39
-7.074248 -13.018108 -27.603305  38  33  31
-7.074248 -13.110741 -27.603305  32  27  26
-7.126892 -13.306373 -27.832192  28  23  22
-7.126892 -13.399769 -27.832192  27  22  22
-7.854468 10.059907 -30.550106  179  178  192
-7.854468 9.957451 -30.550106  149  144  159
-7.854468 9.854996 -30.550106  127  122  137
-7.854468 9.752540 -30.550106  97  90  100
-7.848214 9.641060 -30.523301  70  62  73
-7.848214 9.538694 -30.523301  55  47  50
-7.848214 9.436328 -30.523301  54  45  49
-7.938354 8.112657 -30.909618  66  54  40
-7.938354 7.387079 -30.909618  82  79  74
-7.938354 7.283425 -30.909618  76  73  68
-7.938354 6.972463 -30.909618  83  78  72
-7.938354 6.868809 -30.909618  89  83  78
-7.938354 6.765155 -30.909618  87  83  77
-7.938354 6.661501 -30.909618  105  101  95
-7.938354 6.143231 -30.909618  196  199  208
-7.938354 6.039577 -30.909618  152  155  163
-7.124195 -4.286831 -27.420364  100  24  0
-7.124195 -5.575155 -27.420364  91  24  0
-7.124226 -6.863508 -27.420498  76  19  0
-7.128986 -7.052247 -27.440898  101  54  23
-7.128986 -8.065255 -27.440898  89  98  60
-7.128986 -8.157346 -27.440898  94  103  65
-7.139417 -12.043520 -27.485601  71  67  67
-7.139417 -12.135761 -27.485601  69  65  64
-7.139417 -12.228001 -27.485601  65  61  59
-7.139417 -12.320242 -27.485601  54  50  47
-7.139417 -12.412482 -27.485601  43  39  37
-7.139417 -12.504723 -27.485601  37  32  29
-7.139417 -12.596963 -27.485601  34  29  27
-7.139417 -12.689204 -27.485601  31  26  24
-7.166881 -12.832842 -27.603305  29  24  22
-7.956924 10.264818 -30.550106  163  165  174
-7.956924 10.162362 -30.550106  131  129  144
-7.956924 10.059907 -30.550106  101  99  114
-7.956924 9.957451 -30.550106  78  73  88
-7.956924 9.854996 -30.550106  68  63  78
-7.956924 9.752540 -30.550106  63  55  66
-8.004207 7.964280 -30.749895  77  67  50
-8.004218 7.448684 -30.749939  93  92  86
-8.004218 7.345563 -30.749939  76  74  69
-8.004218 7.242441 -30.749939  76  73  68
-8.004218 7.139319 -30.749939  84  79  75
-8.004218 6.829954 -30.749939  57  51  46
-8.004218 6.108102 -30.749939  189  192  201
-8.004218 6.004980 -30.749939  142  145  154
-7.216218 -4.194808 -27.420364  102  26  0
-7.216218 -5.483132 -27.420364  90  23  0
-7.216218 -5.575155 -27.420364  91  24  0
-7.216218 -5.851224 -27.420364  134  97  88
-7.216218 -6.403363 -27.420366  56  30  33
-7.220523 -9.353801 -27.438552  88  84  92
-7.220523 -9.445885 -27.438552  85  81  89
-7.220523 -9.537969 -27.438552  76  78  64
-7.220523 -9.630053 -27.438552  66  68  54
-7.220523 -9.722136 -27.438552  53  57  42
-7.222328 -11.658921 -27.446182  61  56  59
-7.222328 -11.751030 -27.446182  57  52  54
-7.222328 -11.843140 -27.446182  54  49  51
-7.222328 -11.935249 -27.446182  44  40  40
-7.231657 -12.043520 -27.485601  32  27  28
-7.231657 -12.135761 -27.485601  25  21  19
-7.231657 -12.228001 -27.485601  26  22  21
-7.231657 -12.320242 -27.485601  29  25  22
-8.027469 10.523432 -30.417145  194  196  196
-8.059379 10.469729 -30.550106  155  157  157
-8.059379 10.367274 -30.550106  116  114  119
-8.059379 10.264818 -30.550106  88  87  92
-8.059379 10.162362 -30.550106  77  72  79
-8.059379 10.059907 -30.550106  71  66  73
-8.059379 9.957451 -30.550106  71  63  67
-8.026342 8.787767 -30.412451  67  53  35
-8.076338 8.338890 -30.620769  57  46  33
-8.076338 8.236198 -30.620768  67  57  44
-8.076340 8.030818 -30.620777  100  90  80
-8.076340 7.928127 -30.620777  115  106  97
-8.076344 7.003910 -30.620791  124  123  121
-8.076344 6.079689 -30.620791  189  190  200
-8.076344 5.874307 -30.620791  125  120  123
-7.308241 -3.734693 -27.420364  72  32  19
-7.308241 -4.194808 -27.420364  98  26  0
-7.308241 -4.746947 -27.420364  124  108  104
-7.308241 -4.838970 -27.420364  105  89  86
-7.308241 -4.930993 -27.420364  69  58  59
-7.308241 -5.023016 -27.420364  44  33  34
-7.308241 -5.299085 -27.420364  79  25  0
-7.308241 -5.391109 -27.420364  78  25  0
-7.308241 -5.483132 -27.420364  82  25  0
-7.308241 -5.759201 -27.420364  139  97  75
-7.312606 -9.077550 -27.438552  59  63  45
-7.312606 -9.169634 -27.438552  53  56  35
-7.312606 -9.261718 -27.438552  46  50  29
-7.312606 -9.353801 -27.438552  39  43  20
-7.312606 -9.445885 -27.438552  34  38  15
-7.312606 -9.537969 -27.438552  33  40  0
-7.312606 -9.630053 -27.438552  37  44  0
-7.312906 -11.380127 -27.439801  54  47  52
-7.312906 -11.472214 -27.439801  45  38  43
-7.312906 -11.564302 -27.439801  36  30  33
-7.314437 -11.658921 -27.446182  31  24  27
-7.314437 -11.751030 -27.446182  27  21  22
-8.163503 10.779656 -30.556963  165  169  165
-8.163503 10.677177 -30.556963  146  150  146
-8.163503 10.574699 -30.556963  116  118  118
-8.163503 10.472221 -30.556963  86  88  88
-8.163503 10.369742 -30.556963  71  70  74
-8.163503 10.267264 -30.556963  64  63  68
-8.137021 8.492481 -30.448133  75  63  48
-8.187013 8.451313 -30.653576  74  62  47
-8.187009 8.348509 -30.653563  76  65  53
-8.187008 8.245707 -30.653556  96  85  72
-8.187004 7.526099 -30.653540  138  138  136
-8.187004 7.012098 -30.653540  129  127  126
-8.187004 6.292495 -30.653540  212  213  217
-8.187004 6.086894 -30.653540  177  178  187
-7.400264 -3.642669 -27.420364  81  41  28
-7.400264 -4.102785 -27.420364  96  22  0
-7.400264 -4.470877 -27.420364  149  95  67
-7.400264 -4.838970 -27.420364  97  81  77
-7.400264 -4.930993 -27.420364  67  57  58
-7.400264 -5.299085 -27.420364  79  26  0
-7.405261 -8.433621 -27.440898  72  76  71
-7.405261 -8.525712 -27.440898  62  66  61
-7.405261 -8.709896 -27.440898  48  53  43
-7.405261 -8.801987 -27.440898  36  40  26
-7.404690 -10.458806 -27.438552  63  59  54
-7.404690 -11.103393 -27.438552  39  32  41
-7.404690 -11.195476 -27.438552  34  27  35
-7.404994 -11.288039 -27.439801  30  23  30
-7.404994 -11.380127 -27.439801  28  21  26
-8.267955 11.090158 -30.564963  179  178  168
-8.267955 10.987653 -30.564963  150  149  138
-8.267955 10.885148 -30.564963  130  130  118
-8.267955 10.782642 -30.564963  107  103  96
-8.267955 10.680137 -30.564963  87  83  75
-8.267955 10.577632 -30.564963  66  61  54
-8.267955 10.475127 -30.564963  58  53  47
-8.257679 9.436328 -30.523301  70  60  35
-8.230335 8.685770 -30.412451  75  65  48
-8.230335 8.583773 -30.412451  92  82  65
-8.239137 8.492481 -30.448133  109  100  87
-8.264527 8.420901 -30.551064  121  112  99
-8.264527 8.318443 -30.551064  127  121  113
-8.264527 7.498772 -30.551064  141  139  143
-8.264527 7.396314 -30.551064  144  142  146
-8.264527 7.293855 -30.551064  137  136  140
-8.264527 6.269267 -30.551064  221  221  225
-8.264527 6.166808 -30.551064  205  205  209
-7.492287 -3.550646 -27.420364  71  55  52
-7.492287 -3.642669 -27.420364  77  23  0
-7.492287 -3.918739 -27.420364  89  25  0
-7.492287 -4.102785 -27.420364  95  25  0
-7.492287 -4.378854 -27.420364  135  95  77
-7.492287 -4.654924 -27.420364  127  106  100
-7.492287 -4.746947 -27.420364  102  88  91
-7.492287 -4.838970 -27.420364  69  55  58
-7.492287 -5.207062 -27.420364  86  23  0
-7.492287 -5.575155 -27.420364  118  70  48
-7.492287 -5.667178 -27.420364  119  94  82
-7.492288 -6.403363 -27.420366  110  76  54
-7.497352 -8.157346 -27.440898  54  65  26
-7.497352 -8.249438 -27.440898  41  53  13
-7.497352 -8.341529 -27.440898  34  45  5
-7.496774 -10.274639 -27.438552  49  46  33
-7.496774 -10.366723 -27.438552  47  44  31
-7.496774 -10.458806 -27.438552  45  39  37
-7.496774 -10.550890 -27.438552  42  35  34
-7.496774 -10.642974 -27.438552  37  31  39
-8.363423 11.386601 -30.536813  190  190  181
-8.363423 11.284190 -30.536813  169  169  160
-8.363423 11.181778 -30.536813  138  137  127
-8.363423 11.079367 -30.536813  104  104  93
-8.363423 10.976956 -30.536813  79  78  67
-8.363423 10.874544 -30.536813  66  65  54
-8.363423 10.772133 -30.536813  61  57  50
-8.360045 9.026863 -30.523301  72  60  37
-8.360045 8.924496 -30.523301  81  70  49
-8.332332 8.787767 -30.412451  95  83  63
-8.332332 8.685770 -30.412451  109  99  82
-8.332332 8.583773 -30.412451  124  114  97
-8.341253 8.492481 -30.448133  135  126  114
-8.344616 7.270590 -30.461585  143  142  146
-8.344616 5.942504 -30.461585  125  124  134
-7.584310 -3.458623 -27.420364  78  62  59
-7.584310 -3.550646 -27.420364  55  39  36
-7.584310 -3.826716 -27.420364  97  33  2
-7.584310 -4.010762 -27.420364  95  24  0
-7.584310 -4.102785 -27.420364  99  29  0
-7.584310 -4.286831 -27.420364  141  80  49
-7.584310 -4.378854 -27.420364  138  98  79
-7.584310 -5.023016 -27.420364  44  30  36
-7.584310 -5.115039 -27.420364  79  16  0
-7.584310 -5.207062 -27.420364  93  29  5
-7.584310 -5.943247 -27.420364  108  102  102
-7.589444 -7.604797 -27.440898  29  53  0
-7.588858 -9.906304 -27.438552  48  52  19
-7.588858 -9.998388 -27.438552  40  45  12
-7.588858 -10.090471 -27.438552  35  37  13
-7.588858 -10.182555 -27.438552  31  33  8
-7.588858 -10.274639 -27.438552  32  29  17
-8.445278 11.661108 -30.455672  199  198  194
-8.445278 11.558967 -30.455672  177  173  167
-8.445278 11.456826 -30.455672  149  145  139
-8.445278 11.354685 -30.455672  114  107  98
-8.445278 11.252545 -30.455672  86  79  71
-8.445278 11.150404 -30.455672  76  67  57
-8.445278 11.048263 -30.455672  72  64  54
-8.445278 10.946122 -30.455672  70  60  49
-8.470939 10.267264 -30.556963  74  63  40
-8.462411 9.129229 -30.523301  88  79  68
-8.462411 8.924496 -30.523301  113  104  95
-8.448934 7.477183 -30.470103  154  150  158
-8.448934 7.374994 -30.470103  149  145  153
-8.448934 7.170616 -30.470103  102  100  108
-8.448934 6.557483 -30.470103  86  90  86
-8.448934 6.250916 -30.470103  220  218  223
-8.448934 6.148727 -30.470103  190  187  192
-8.448934 5.944349 -30.470103  125  120  131
-7.676334 -3.366600 -27.420364  102  83  80
-7.676334 -3.458623 -27.420364  74  47  42
-7.676334 -3.734693 -27.420364  82  25  0
-7.676334 -3.826716 -27.420364  90  29  0
-7.676334 -3.918739 -27.420364  89  27  0
-7.676334 -4.562901 -27.420364  101  91  94
-7.676334 -4.654924 -27.420364  87  78  81
-7.676334 -4.746947 -27.420364  76  65  72
-7.676334 -4.838970 -27.420364  79  67  75
-7.676334 -4.930993 -27.420364  102  83  91
-7.676334 -5.023016 -27.420364  119  100  108
-7.676334 -5.115039 -27.420364  145  105  95
-7.680941 -9.814220 -27.438552  35  28  28
-7.680941 -9.906304 -27.438552  30  25  22
-8.539790 11.853202 -30.425948  171  172  170
-8.539790 11.751161 -30.425948  150  148  144
-8.539790 11.649119 -30.425948  131  130  126
-8.539790 11.547077 -30.425948  96  92  85
-8.539790 11.445035 -30.425948  80  75  69
-8.539790 11.342994 -30.425948  65  58  50
-8.539790 11.240952 -30.425948  62  55  47
-8.564777 9.231595 -30.523301  115  104  83
-8.564777 9.129229 -30.523301  131  121  111
-8.564777 9.026863 -30.523301  132  122  112
-8.564777 8.924496 -30.523301  133  124  115
-8.565668 7.492295 -30.526772  158  154  162
-8.565668 7.082783 -30.526772  134  135  139
-8.565668 6.673272 -30.526772  65  68  65
-8.565668 6.570894 -30.526772  78  81  77
-8.565668 6.263761 -30.526772  222  220  225
-8.565668 6.161383 -30.526772  184  181  186
-8.565668 6.059005 -30.526772  146  142  153
-8.565668 5.956627 -30.526772  124  119  130
-7.768357 -3.642669 -27.420364  88  30  0
-7.768357 -4.102785 -27.420364  111  52  19
-7.768357 -4.194808 -27.420364  126  83  60
-7.768357 -4.562901 -27.420364  115  106  109
-7.768357 -4.654924 -27.420364  118  108  111
-7.768357 -4.746947 -27.420364  119  107  115
-7.768357 -4.838970 -27.420364  120  108  116
-8.625755 12.031523 -30.364116  172  176  176
-8.625755 11.929687 -30.364116  143  144  142
-8.625755 11.827851 -30.364116  112  113  111
-8.625755 11.726016 -30.364116  89  86  82
-8.625755 11.624180 -30.364116  73  70  66
-8.625755 11.522344 -30.364116  72  66  60
-8.674113 9.752540 -30.550106  82  70  45
-8.667143 9.641060 -30.523301  89  77  52
-8.667143 9.538694 -30.523301  101  89  74
-8.667143 9.436328 -30.523301  119  106  91
-8.667143 9.333961 -30.523301  134  121  112
-8.667143 9.231595 -30.523301  143  130  122
-8.664552 6.772380 -30.513335  109  112  113
-8.664552 6.670047 -30.513335  130  133  130
-8.664552 6.567714 -30.513335  141  144  141
-8.664552 6.465381 -30.513335  174  174  173
-8.664552 6.363048 -30.513335  210  210  209
-8.664552 6.158382 -30.513335  185  181  187
-8.664552 6.056049 -30.513335  146  139  151
-7.860380 -5.575155 -27.420364  99  111  113
-7.860380 -5.667178 -27.420364  108  111  107
-7.860380 -5.851224 -27.420364  112  99  90
-7.860380 -5.943247 -27.420364  111  98  89
-7.860415 -6.771485 -27.420498  34  48  12
-8.727591 12.337029 -30.364116  173  179  179
-8.727591 12.235194 -30.364116  149  155  155
-8.727591 12.133358 -30.364116  111  115  115
-8.727591 12.031523 -30.364116  74  79  78
-8.727591 11.929687 -30.364116  60  61  59
-8.727591 11.827851 -30.364116  60  62  60
-8.727591 11.726016 -30.364116  68  66  62
-8.776568 9.957451 -30.550106  105  93  60
-8.776568 9.854996 -30.550106  110  98  65
-8.776568 9.752540 -30.550106  118  106  81
-8.769510 9.641060 -30.523301  130  118  93
-8.769510 9.538694 -30.523301  140  128  112
-8.726407 7.040438 -30.359620  143  143  149
-8.726407 6.938618 -30.359620  133  134  140
-8.726407 6.836797 -30.359620  134  137  137
-8.726407 6.734976 -30.359620  141  144  145
-8.726407 6.633156 -30.359620  143  146  143
-8.726407 6.531335 -30.359620  144  147  144
-8.726407 6.429514 -30.359620  176  176  175
-8.726407 6.225873 -30.359620  206  202  208
-8.726407 6.022232 -30.359620  139  132  144
-7.952403 -3.458623 -27.420364  89  55  47
-7.952403 -3.550646 -27.420364  109  75  67
-7.952403 -3.642669 -27.420364  138  82  42
-7.952403 -3.734693 -27.420364  136  80  40
-7.952403 -5.115039 -27.420364  95  102  103
-7.952403 -5.207062 -27.420364  98  105  106
-7.952403 -5.299085 -27.420364  93  104  107
-7.952403 -5.391109 -27.420364  88  100  102
-7.952403 -5.483132 -27.420364  87  99  101
-7.952403 -5.575155 -27.420364  83  95  97
-7.952403 -5.667178 -27.420364  72  74  71
-7.952403 -5.759201 -27.420364  51  54  50
-7.952403 -5.851224 -27.420364  49  36  26
-7.952403 -6.679432 -27.420364  28  42  19
-8.841509 12.662321 -30.409424  185  186  179
-8.841509 12.560334 -30.409424  156  154  145
-8.841509 12.458347 -30.409424  125  124  115
-8.841509 12.356361 -30.409424  104  92  97
-8.841509 12.254374 -30.409424  86  73  79
-8.841509 12.152387 -30.409424  69  60  60
-8.841509 12.050401 -30.409424  71  61  62
-8.845915 11.138910 -30.425948  85  62  49
-8.845915 11.036869 -30.425948  83  60  47
-8.853842 10.946122 -30.455672  99  65  61
-8.879024 10.059907 -30.550106  107  97  88
-8.879024 9.957451 -30.550106  127  121  118
-8.879024 9.854996 -30.550106  132  126  123
-8.791270 6.903970 -30.221029  149  150  148
-8.791270 6.599894 -30.221029  139  141  141
-8.791270 6.498535 -30.221029  152  154  154
-8.791270 6.194459 -30.221029  201  200  203
-8.044426 -5.023016 -27.420364  104  88  90
-8.044426 -5.115039 -27.420364  103  68  65
-8.044426 -5.207062 -27.420364  93  58  55
-8.044426 -5.299085 -27.420364  82  43  39
-8.044426 -5.391109 -27.420364  69  30  26
-8.044426 -5.483132 -27.420364  65  21  15
-8.044426 -5.575155 -27.420364  61  17  11
-8.044426 -6.587409 -27.420364  38  44  9
-8.049902 -7.512705 -27.440898  41  37  30
-8.937914 12.857129 -30.388751  171  174  171
-8.937914 12.755211 -30.388751  142  143  136
-8.937914 12.653294 -30.388751  112  112  106
-8.937914 12.551376 -30.388751  88  87  78
-8.937914 12.449458 -30.388751  73  72  63
-8.937914 12.347540 -30.388751  71  59  64
-8.937914 12.245623 -30.388751  68  56  61
-8.947957 11.240952 -30.425948  91  82  58
-8.983331 10.369742 -30.556963  109  95  78
-8.983331 10.267264 -30.556963  120  106  89
-8.983331 10.164785 -30.556963  132  122  112
-8.981480 10.059907 -30.550106  143  133  124
-8.877677 6.283081 -30.165651  208  210  212
-8.877677 6.181907 -30.165651  197  197  200
-8.877677 5.979559 -30.165651  129  125  128
-8.136449 -4.286831 -27.420364  120  103  101
-8.136449 -4.378854 -27.420364  112  100  103
-8.136449 -4.470877 -27.420364  109  97  100
-8.136449 -4.562901 -27.420364  103  92  96
-8.136449 -4.654924 -27.420364  95  83  88
-8.136449 -4.746947 -27.420364  84  70  74
-8.136449 -4.838970 -27.420364  68  54  58
-8.136449 -4.930993 -27.420364  54  38  41
-8.136449 -5.115039 -27.420364  58  23  19
-9.088949 13.244346 -30.568451  181  184  183
-9.088949 13.141829 -30.568451  156  159  158
-9.088949 13.039313 -30.568451  121  120  117
-9.088949 12.936796 -30.568451  86  86  82
-9.088949 12.834279 -30.568451  67  64  57
-9.088949 12.731762 -30.568451  61  58  51
-9.088949 12.629246 -30.568451  68  63  53
-9.033098 11.318673 -30.364116  96  80  54
-9.087996 10.577632 -30.564963  122  117  100
-9.087996 10.475127 -30.564963  126  121  104
-9.085809 10.369742 -30.556963  130  125  114
-8.778030 6.410273 -29.430941  130  133  135
-8.778030 6.311548 -29.430941  158  161  163
-8.778030 6.114098 -29.430941  200  203  208
-8.228472 -3.458623 -27.420364  82  27  5
-8.228472 -3.642669 -27.420364  82  25  0
-8.228472 -3.734693 -27.420364  103  47  9
-8.228472 -3.826716 -27.420364  128  77  44
-8.228472 -3.918739 -27.420364  145  94  62
-8.228472 -4.010762 -27.420364  134  92  66
-8.228472 -4.102785 -27.420364  118  76  50
-8.228472 -4.194808 -27.420364  99  65  45
-8.228472 -4.746947 -27.420364  48  17  0
-8.228472 -4.838970 -27.420364  49  18  1
-8.228472 -4.930993 -27.420364  54  21  2
-8.228472 -5.023016 -27.420364  57  24  5
-9.268222 13.576997 -30.845880  153  157  158
-9.268222 13.473556 -30.845880  129  133  133
-9.268222 13.370114 -30.845880  96  98  98
-9.268222 13.266673 -30.845880  77  79  79
-9.268222 13.163231 -30.845880  62  61  58
-9.268222 13.059790 -30.845880  61  60  57
-9.268222 12.025375 -30.845880  88  73  58
-9.268222 11.921933 -30.845880  92  75  53
-9.191466 11.706595 -30.568451  95  78  56
-9.134933 11.522344 -30.364116  97  80  53
-9.134933 11.420509 -30.364116  102  85  58
-9.152040 11.138910 -30.425948  98  79  61
-8.797503 6.341524 -29.144487  131  134  136
-8.797503 6.243754 -29.144487  169  172  174
-8.797503 6.048213 -29.144487  202  205  210
-8.797503 5.754903 -29.144487  120  117  122
-8.320495 -2.814461 -27.420364  105  102  102
-8.320495 -2.906485 -27.420364  91  77  76
-8.320495 -2.998508 -27.420364  72  58  56
-8.320495 -3.090531 -27.420364  65  35  29
-8.320495 -3.182554 -27.420364  60  30  24
-8.320495 -3.274577 -27.420364  73  28  13
-8.320495 -3.366600 -27.420364  73  27  13
-8.320495 -3.458623 -27.420364  80  25  4
-8.320495 -3.550646 -27.420364  81  27  5
-8.320495 -3.642669 -27.420364  91  35  0
-8.320495 -3.734693 -27.420364  94  38  0
-8.320495 -3.826716 -27.420364  89  38  5
-8.320495 -3.918739 -27.420364  82  31  0
-8.320495 -4.010762 -27.420364  67  25  0
-8.320495 -4.194808 -27.420364  53  19  0
-8.320495 -4.286831 -27.420364  51  17  0
-8.320495 -4.378854 -27.420364  49  19  3
-8.320495 -4.470877 -27.420364  49  20  4
-8.320495 -4.562901 -27.420364  49  21  5
-8.320495 -5.023016 -27.420364  48  16  0
-8.320495 -5.115039 -27.420364  49  23  0
-8.320495 -5.207062 -27.420364  53  28  4
-8.320495 -5.299085 -27.420364  62  34  11
