ply
format ascii 1.0
element face 0
property list uint8 int32 vertex_indices
element vertex 1068
property float x
property float y
property float z
property uchar diffuse_red 
property uchar diffuse_green 
property uchar diffuse_blue 
end_header
-6.250756 -10.294498 -27.245647  113  132  31
-6.250756 -11.200673 -27.245647  77  112  58
-6.250756 -11.744378 -27.245647  90  120  13
-6.326446 -14.128057 -28.118995  163  161  182
-6.326446 -14.221586 -28.118995  153  151  172
-6.326446 -14.315115 -28.118995  134  143  161
-6.326446 -14.876287 -28.118995  111  140  102
-6.326446 -14.969815 -28.118995  138  167  129
-6.326446 -15.063344 -28.118995  158  162  152
-5.697314 12.558628 -20.089434  168  137  137
-5.697585 12.493977 -20.092438  152  122  122
-5.697585 12.427204 -20.092438  174  143  143
-5.697908 12.362931 -20.096028  194  163  163
-5.698095 12.297586 -20.098105  191  165  161
-5.698193 12.231544 -20.099193  163  137  133
-5.698296 12.165536 -20.100340  158  132  129
-5.698755 12.035406 -20.105443  179  152  151
-5.710376 8.222869 -20.234559  184  154  153
-5.710376 8.155621 -20.234559  177  147  146
-5.710376 8.088374 -20.234559  128  104  105
-5.896261 3.223349 -22.299952  85  46  81
-5.896261 3.149217 -22.299952  103  67  93
-5.896261 3.075085 -22.299952  214  178  204
-5.896261 2.926821 -22.299952  231  216  234
-5.896261 2.704426 -22.299952  155  147  157
-5.896261 2.630294 -22.299952  180  172  183
-6.053834 0.563912 -24.050766  181  182  193
-6.053834 0.084105 -24.050766  157  151  154
-6.290708 -5.677305 -26.682693  136  93  75
-6.290708 -6.209750 -26.682693  151  81  19
-6.308041 -6.332516 -26.875285  186  116  54
-6.309063 -6.423942 -26.886637  200  149  118
-6.310355 -6.515995 -26.900993  213  162  131
-6.311741 -6.608339 -26.916399  193  167  173
-6.312190 -6.698807 -26.921386  195  168  174
-6.314367 -6.793019 -26.945572  178  173  198
-6.315787 -6.885739 -26.961349  176  171  196
-6.317433 -7.068799 -26.979642  167  177  196
-6.318095 -7.160049 -26.986997  167  184  189
-6.318736 -7.251300 -26.994115  170  186  192
-6.319347 -7.342527 -27.000904  167  173  185
-6.320395 -8.153576 -27.012552  172  175  182
-6.320395 -8.243417 -27.012552  165  167  171
-6.320395 -8.333257 -27.012552  155  156  160
-6.320395 -8.423098 -27.012552  139  135  135
-6.320395 -8.512938 -27.012552  121  118  117
-6.328150 -8.625182 -27.098719  109  102  97
-6.328428 -8.716124 -27.101812  88  80  76
-6.329174 -9.259301 -27.110100  145  55  0
-6.329174 -9.349466 -27.110100  150  93  43
-6.329174 -9.529798 -27.110100  138  132  67
-6.334084 -10.268580 -27.164654  88  107  7
-6.334084 -10.358928 -27.164654  119  137  37
-6.334084 -10.449275 -27.164654  150  160  102
-6.334084 -10.810665 -27.164654  156  160  183
-6.334084 -10.901013 -27.164654  154  158  181
-6.334084 -10.991360 -27.164654  122  139  141
-6.334084 -11.081708 -27.164654  101  118  120
-6.334084 -11.172055 -27.164654  75  109  56
-6.423139 -14.143761 -28.154151  144  141  162
-6.423139 -14.237406 -28.154151  128  125  146
-6.423139 -14.705636 -28.154151  126  151  142
-6.423139 -14.799281 -28.154151  146  172  163
-6.423139 -14.892927 -28.154151  154  183  145
-5.766477 12.576792 -20.115138  148  118  112
-5.766652 12.444408 -20.117016  158  129  121
-5.766883 12.379279 -20.119494  183  154  146
-5.767016 12.313403 -20.120918  128  106  105
-5.767150 12.180647 -20.122347  98  75  75
-5.767150 12.113774 -20.122347  102  79  79
-5.767471 12.049245 -20.125795  125  101  102
-5.767471 11.982361 -20.125795  169  145  146
-5.783050 7.981405 -20.292711  95  74  102
-5.963393 3.133218 -22.224956  97  61  79
-5.963393 2.911572 -22.224956  241  226  236
-5.963393 2.837690 -22.224956  186  182  187
-5.963393 2.616045 -22.224956  175  167  173
-6.126913 0.477547 -23.976953  170  169  178
-6.126913 0.078938 -23.976953  154  148  152
-6.399883 -5.800346 -26.901633  116  77  66
-6.402569 -6.252688 -26.930412  142  68  0
-6.402569 -6.342255 -26.930412  155  81  0
-6.402569 -6.431822 -26.930412  170  107  30
-6.402569 -6.521388 -26.930412  189  126  50
-6.402569 -6.610955 -26.930412  194  143  97
-6.402569 -6.700522 -26.930412  201  150  103
-6.407761 -6.800844 -26.986043  198  156  136
-6.408588 -6.892339 -26.994905  200  157  138
-6.409186 -6.983401 -27.001308  195  156  143
-6.409710 -7.074345 -27.006921  193  153  140
-6.410140 -7.165118 -27.011525  192  152  134
-6.410562 -7.255907 -27.016054  191  151  134
-6.410562 -7.345759 -27.016054  185  155  116
-6.410562 -7.435611 -27.016054  182  153  113
-6.410562 -7.525463 -27.016054  182  148  108
-6.410562 -7.615315 -27.016054  179  145  104
-6.410562 -7.705167 -27.016054  177  136  94
-6.410562 -7.795020 -27.016054  167  126  84
-6.410562 -7.884872 -27.016054  161  114  73
-6.410562 -7.974724 -27.016054  156  108  67
-6.410562 -8.064576 -27.016054  151  97  56
-6.410562 -8.154428 -27.016054  144  90  49
-6.410562 -8.244280 -27.016054  140  77  35
-6.410562 -8.334133 -27.016054  133  69  28
-6.410562 -8.423985 -27.016054  130  57  12
-6.410562 -8.513837 -27.016054  128  54  9
-6.410562 -8.603689 -27.016054  139  58  10
-6.418358 -9.256319 -27.099575  149  62  0
-6.418619 -9.527533 -27.102379  154  137  98
-6.418920 -10.429984 -27.105600  106  136  39
-6.418920 -10.520135 -27.105600  121  152  54
-6.418920 -10.610286 -27.105600  136  159  94
-6.418920 -10.700436 -27.105600  140  163  98
-6.418920 -10.790587 -27.105600  130  153  103
-6.418920 -10.880738 -27.105600  117  140  89
-6.418920 -10.970888 -27.105600  87  117  54
-6.418920 -11.782244 -27.105600  95  131  8
-6.523211 -14.174513 -28.222999  159  158  171
-6.523211 -14.268388 -28.222999  148  147  160
-5.834962 12.588751 -20.132062  148  119  112
-5.835208 12.456720 -20.134604  157  128  121
-5.835295 12.390438 -20.135511  174  144  137
-5.835408 12.324330 -20.136679  121  99  98
-5.835458 12.257762 -20.137190  133  111  110
-5.835611 12.125001 -20.138776  131  108  107
-5.835768 12.059176 -20.140399  115  91  92
-5.835936 11.993419 -20.142137  159  135  136
-5.860273 8.571529 -20.393902  144  118  132
-5.865762 8.531952 -20.450684  122  97  111
-5.865762 8.463985 -20.450684  107  81  104
-5.865762 8.396017 -20.450684  95  69  92
-5.865762 8.328050 -20.450684  75  49  77
-5.865762 8.260082 -20.450684  63  36  64
-6.033641 3.198954 -22.187360  94  55  94
-6.033641 3.051440 -22.187360  196  160  178
-6.033641 2.977684 -22.187360  252  237  247
-6.033641 2.903927 -22.187360  245  230  240
-6.033641 2.830171 -22.187360  192  189  194
-6.033641 2.756414 -22.187360  146  143  148
-6.033641 2.608901 -22.187360  176  167  173
-6.206635 0.477547 -23.976952  174  172  181
-6.206635 0.078938 -23.976952  149  143  147
-6.491535 -5.624790 -26.924201  158  155  172
-6.491535 -5.803882 -26.924201  114  74  63
-6.491535 -6.520250 -26.924201  134  71  0
-6.491535 -6.609796 -26.924201  120  69  22
-6.499969 -6.715918 -27.011446  125  74  27
-6.500982 -6.807781 -27.021925  121  78  58
-6.500982 -6.897653 -27.021925  121  78  59
-6.500982 -6.987524 -27.021925  116  76  64
-6.500982 -7.077396 -27.021925  115  75  62
-6.502668 -7.170873 -27.039367  115  75  57
-6.502884 -7.261271 -27.041598  115  75  57
-6.503083 -7.351649 -27.043662  106  77  38
-6.503212 -7.441881 -27.044990  104  74  35
-6.503368 -7.532185 -27.046609  104  70  29
-6.503488 -7.622416 -27.047847  102  68  27
-6.503609 -7.712659 -27.049103  103  63  21
-6.503759 -7.802977 -27.050649  98  57  15
-6.503900 -7.893285 -27.052108  97  50  9
-6.504036 -7.983591 -27.053519  94  47  6
-6.504197 -8.073966 -27.055180  108  54  13
-6.504197 -8.163949 -27.055180  112  57  17
-6.504197 -8.253932 -27.055180  122  58  16
-6.505966 -9.429013 -27.073483  192  136  93
-6.506009 -9.519188 -27.073931  157  141  102
-6.506517 -9.610792 -27.079184  129  112  74
-6.507052 -10.423163 -27.084717  77  108  10
-6.507052 -10.513244 -27.084717  80  110  13
-6.507052 -10.603325 -27.084717  84  107  42
-6.507052 -10.693406 -27.084717  86  109  44
-6.507052 -10.783487 -27.084717  80  103  53
-6.591997 -12.012362 -27.963463  81  118  0
-6.596018 -12.121041 -28.005061  94  131  8
-6.601085 -14.380550 -28.057477  139  149  166
-6.601085 -14.473874 -28.057477  120  140  157
-6.601085 -14.567197 -28.057477  78  99  115
-6.601085 -14.660521 -28.057477  24  53  45
-6.601085 -14.847168 -28.057477  16  49  12
-6.601085 -14.940492 -28.057477  40  74  36
-6.601085 -15.033815 -28.057477  120  125  105
-6.601085 -15.127139 -28.057477  155  160  140
-5.903158 12.597868 -20.144963  154  126  113
-5.903158 12.463971 -20.144963  168  139  125
-5.903158 12.397022 -20.144963  177  149  135
-5.903434 12.331994 -20.147732  121  101  101
-5.903434 12.265036 -20.147732  135  115  115
-5.903434 12.198078 -20.147732  165  145  146
-5.903434 12.131120 -20.147732  131  111  112
-5.903725 12.066139 -20.150638  106  84  87
-5.903725 11.999172 -20.150638  152  130  133
-5.937752 9.164843 -20.490904  196  175  174
-5.937752 9.028640 -20.490904  186  165  167
-5.937752 8.960538 -20.490904  163  142  145
-5.937752 8.892436 -20.490904  138  117  125
-5.945756 8.865156 -20.570945  122  101  110
-5.945756 8.796787 -20.570945  85  64  84
-5.945756 8.728419 -20.570945  70  49  68
-5.945756 8.660050 -20.570945  54  32  66
-5.955256 8.501497 -20.665949  57  34  80
-5.955256 8.432812 -20.665949  67  43  97
-5.955256 8.364127 -20.665949  78  54  108
-5.961123 8.323602 -20.724617  96  71  117
-5.982913 7.732122 -20.942513  117  84  110
-5.982913 7.662515 -20.942513  111  78  104
-5.982913 7.592908 -20.942513  111  83  111
-6.107914 3.200073 -22.192527  94  56  98
-6.107914 3.126299 -22.192527  93  57  69
-6.107914 3.052526 -22.192527  188  152  164
-6.107914 2.904978 -22.192527  246  231  236
-6.107914 2.831204 -22.192527  200  197  198
-6.107914 2.757431 -22.192527  156  153  153
-6.107914 2.609883 -22.192527  175  167  170
-6.286357 0.078938 -23.976952  145  139  142
-6.286357 -0.000784 -23.976952  172  167  172
-6.575254 -5.616049 -26.865932  164  162  182
-6.575254 -5.705401 -26.865932  153  114  108
-6.575254 -5.794753 -26.865932  115  77  70
-6.589607 -7.434182 -27.009457  144  57  12
-6.590876 -9.504000 -27.022152  159  137  110
-6.590876 -9.593872 -27.022152  128  106  79
-6.681024 -11.997491 -27.923630  77  126  0
-6.686547 -14.437709 -27.978859  107  132  138
-6.686547 -14.530771 -27.978859  70  95  101
-6.686547 -14.623832 -27.978859  55  86  86
-6.686547 -14.716894 -27.978859  62  93  92
-6.686547 -14.809955 -27.978859  62  97  76
-6.686547 -14.903017 -27.978859  62  97  77
-6.686547 -14.996078 -27.978859  97  104  72
-6.686547 -15.089140 -27.978859  140  147  115
-5.971400 12.606718 -20.157487  152  124  111
-5.971533 12.473636 -20.158770  174  146  132
-5.971647 12.407408 -20.159871  184  156  142
-5.971787 12.341352 -20.161230  124  104  104
-5.971849 12.274761 -20.161827  82  62  62
-5.971909 12.208155 -20.162407  77  57  58
-5.972090 12.142345 -20.164158  60  39  40
-5.972336 12.076954 -20.166543  74  52  54
-5.972595 12.011629 -20.169048  145  124  126
-5.999984 9.338664 -20.434102  185  154  154
-5.999984 9.270752 -20.434102  163  141  140
-5.999984 9.202839 -20.434102  144  122  121
-5.999984 9.134927 -20.434102  119  98  97
-5.999984 9.067015 -20.434102  100  79  78
-6.025470 9.127356 -20.680743  84  63  65
-6.025470 9.058622 -20.680743  72  51  53
-6.025470 8.989887 -20.680743  67  46  55
-6.033656 8.409565 -20.759959  61  36  91
-6.033656 7.788578 -20.759959  106  74  104
-6.033656 7.650581 -20.759959  93  60  86
-6.033656 7.443586 -20.759959  80  53  81
-6.176488 3.115564 -22.142203  104  68  80
-6.176488 3.041958 -22.142203  190  154  166
-6.176488 2.821140 -22.142203  204  201  202
-6.176488 2.747534 -22.142203  160  157  157
-6.176488 2.600322 -22.142203  166  158  161
-6.366078 -0.000784 -23.976952  173  168  173
-6.672077 -5.626894 -26.938231  169  167  188
-6.672077 -5.716487 -26.938231  160  122  115
-6.672077 -5.806080 -26.938231  121  83  76
-6.687575 -9.253100 -27.088214  148  58  0
-6.722765 -9.532042 -27.428754  190  132  101
-6.723924 -9.626561 -27.439975  167  145  118
-6.725396 -9.722053 -27.454222  132  110  83
-6.748983 -11.907461 -27.682478  73  122  0
-6.771592 -12.081948 -27.901274  88  137  0
-6.775976 -14.328593 -27.943702  139  155  147
-6.775976 -14.421537 -27.943702  103  127  133
-6.775976 -14.514482 -27.943702  78  103  109
-6.775976 -14.607426 -27.943702  84  115  114
-6.775976 -14.700370 -27.943702  99  130  130
-6.775976 -14.793315 -27.943702  98  133  113
-6.775976 -14.886259 -27.943702  100  135  115
-6.775976 -14.979203 -27.943702  104  111  80
-6.775976 -15.072148 -27.943702  136  143  111
-6.038391 12.606718 -20.157487  137  110  102
-6.038468 12.540240 -20.158215  134  107  99
-6.038527 12.473636 -20.158770  183  152  142
-6.038645 12.407408 -20.159871  196  165  155
-6.038790 12.341352 -20.161230  194  171  147
-6.038915 12.208155 -20.162407  170  149  136
-6.039102 12.142345 -20.164158  143  121  109
-6.039356 12.076954 -20.166543  143  122  126
-6.039624 12.011629 -20.169048  172  151  155
-6.051153 11.343487 -20.277134  171  148  148
-6.075514 9.717741 -20.505515  184  161  164
-6.077526 9.659969 -20.524384  168  145  148
-6.077968 9.594019 -20.528524  158  135  153
-6.078969 9.530891 -20.537909  143  120  139
-6.079541 9.465531 -20.543276  120  98  131
-6.080369 9.401418 -20.551034  108  85  119
-6.081299 9.337767 -20.559756  83  57  99
-6.084439 9.285035 -20.589188  74  48  91
-6.086321 9.225903 -20.606840  58  37  80
-6.087591 9.163645 -20.618745  55  34  78
-6.090214 9.107903 -20.643333  51  36  82
-6.100471 8.744325 -20.739493  48  36  90
-6.100471 8.399673 -20.739493  51  42  108
-6.138536 8.081315 -21.096350  94  67  98
-6.155318 7.800466 -21.253680  76  48  78
-6.158818 7.744258 -21.286492  77  48  84
-6.158818 7.673505 -21.286492  70  41  77
-6.244865 3.105106 -22.093181  77  51  77
-6.244865 3.031663 -22.093181  153  127  153
-6.244865 2.958220 -22.093181  228  209  240
-6.442539 0.474897 -23.946376  180  181  189
-6.442539 -0.002822 -23.946376  161  157  162
-6.758570 -5.622536 -26.909173  178  176  182
-6.759462 -5.713313 -26.917533  151  149  154
-6.760312 -5.804086 -26.925502  98  96  101
-6.812450 -9.345490 -27.414298  161  53  21
-6.870118 -14.333722 -27.954933  139  152  160
-6.870118 -14.426703 -27.954933  107  130  132
-6.870118 -14.519685 -27.954933  83  107  108
-6.870118 -14.612667 -27.954933  69  104  96
-6.870118 -14.705649 -27.954933  79  113  105
-6.870118 -14.984594 -27.954933  99  118  97
-6.870118 -15.077576 -27.954933  122  140  120
-6.870118 -15.170557 -27.954933  145  157  149
-6.105381 12.606718 -20.157487  135  108  99
-6.105461 12.540240 -20.158215  128  101  92
-6.105522 12.473636 -20.158770  170  140  130
-6.105643 12.407408 -20.159871  178  147  137
-6.105793 12.341352 -20.161230  113  89  66
-6.106115 12.142345 -20.164158  111  90  77
-6.106377 12.076954 -20.166543  141  120  124
-6.117742 11.406199 -20.269864  166  142  118
-6.118542 11.343487 -20.277134  140  116  117
-6.144915 10.133164 -20.516888  161  137  147
-6.145373 10.067348 -20.521051  191  168  177
-6.145973 10.002239 -20.526508  175  153  159
-6.147031 9.939437 -20.536127  162  139  146
-6.147741 9.874800 -20.542583  149  126  126
-6.153487 9.835605 -20.594820  142  119  119
-6.154195 9.770718 -20.601255  123  99  103
-6.159130 9.726924 -20.646120  104  81  84
-6.160210 9.663668 -20.655931  96  73  91
-6.162622 9.606932 -20.677861  89  66  84
-6.163846 9.544215 -20.688987  77  55  88
-6.165941 9.485672 -20.708030  73  51  84
-6.178493 8.993268 -20.822145  54  42  88
-6.181060 8.935886 -20.845481  52  40  88
-6.182096 8.871341 -20.854897  51  39  88
-6.184662 8.813692 -20.878228  51  39  93
-6.185687 8.748923 -20.887539  51  39  93
-6.186747 8.684254 -20.897175  50  39  100
-6.188395 8.622139 -20.912157  43  33  93
-6.191168 8.495316 -20.937375  48  38  104
-6.306674 3.009454 -21.987422  159  134  160
-6.306674 2.936364 -21.987422  228  210  240
-6.306674 2.790183 -21.987422  215  206  226
-6.306674 2.570913 -21.987422  161  157  157
-6.522159 -0.002822 -23.946376  160  156  161
-6.853676 -5.719851 -26.960172  157  155  160
-6.908282 -9.266151 -27.456584  158  49  17
-6.909801 -9.361386 -27.470402  163  55  22
-6.912338 -9.550806 -27.493458  218  140  108
-6.912338 -11.836894 -27.493458  78  114  0
-6.967545 -12.117382 -27.995348  92  128  0
-6.967077 -12.301982 -27.991087  151  173  100
-6.966699 -14.348664 -27.987653  145  158  165
-6.966699 -14.441755 -27.987653  106  130  132
-6.966699 -14.627936 -27.987653  45  79  72
-6.966699 -14.721027 -27.987653  67  101  93
-6.966699 -15.093391 -27.987653  118  136  116
-6.966699 -15.186481 -27.987653  151  162  155
-6.172371 12.606718 -20.157487  141  116  110
-6.172454 12.540240 -20.158215  136  111  105
-6.172516 12.473636 -20.158770  181  152  144
-6.172641 12.407408 -20.159871  186  158  150
-6.172795 12.341352 -20.161230  162  138  130
-6.172863 12.274761 -20.161827  145  122  113
-6.172929 12.208155 -20.162407  137  116  110
-6.173127 12.142345 -20.164158  144  123  118
-6.173397 12.076954 -20.166543  168  149  148
-6.185107 11.406199 -20.269864  165  140  132
-6.186251 11.277896 -20.279958  162  141  134
-6.186807 11.213604 -20.284864  183  162  159
-6.227558 10.206290 -20.644434  106  81  114
-6.227558 10.137677 -20.644434  123  98  131
-6.227558 10.069063 -20.644434  111  85  122
-6.227558 10.000450 -20.644434  105  79  116
-6.227558 9.931836 -20.644434  102  75  110
-6.227558 9.863223 -20.644434  98  71  106
-6.227558 9.794609 -20.644434  89  62  101
-6.262707 9.269743 -20.954565  41  24  89
-6.265173 9.141621 -20.976328  41  27  92
-6.276444 8.562211 -21.075780  51  40  119
-6.277855 8.498136 -21.088229  91  69  128
-6.290800 8.130120 -21.202448  94  68  101
-6.295238 8.006926 -21.241610  107  79  109
-6.297381 7.944830 -21.260515  105  78  108
-6.303333 7.755938 -21.313036  74  46  83
-6.305245 7.692462 -21.329905  82  54  91
-6.307039 7.628422 -21.345731  110  82  123
-6.370327 3.356029 -21.904153  97  69  99
-6.370327 3.283217 -21.904153  88  61  91
-6.370327 3.210405 -21.904153  89  62  92
-6.370327 2.773530 -21.904153  223  216  231
-6.370327 2.700717 -21.904153  168  161  176
-6.370327 2.555092 -21.904153  161  159  157
-6.601779 -0.002822 -23.946376  158  154  159
-6.949278 -5.727882 -27.012547  165  163  169
-6.951655 -5.910919 -27.033522  147  77  35
-6.994892 -9.254515 -27.415027  146  65  0
-6.994892 -9.528061 -27.415027  206  151  95
-7.003781 -11.836894 -27.493458  81  121  0
-7.060662 -12.117382 -27.995348  101  141  0
-7.060179 -12.301982 -27.991087  152  176  88
-7.061505 -14.355576 -28.002790  151  162  176
-7.061505 -14.448718 -28.002790  134  156  159
-7.061505 -14.541859 -28.002790  96  118  121
-7.061505 -14.821283 -28.002790  72  113  86
-7.061505 -14.914424 -28.002790  108  150  123
-7.061505 -15.007565 -28.002790  134  149  129
-6.239361 12.606718 -20.157487  130  105  99
-6.239446 12.540240 -20.158215  131  106  100
-6.239511 12.473636 -20.158770  184  155  148
-6.252472 11.406199 -20.269864  167  143  134
-6.253650 11.277896 -20.279958  165  144  136
-6.254222 11.213604 -20.284864  187  166  163
-6.298573 10.355452 -20.665011  131  106  125
-6.298573 10.286770 -20.665011  66  41  59
-6.298573 10.218088 -20.665011  66  41  74
-6.298573 10.149406 -20.665011  92  67  99
-6.346496 8.562211 -21.075780  50  39  118
-6.349946 8.436208 -21.105359  112  90  149
-6.361273 8.130120 -21.202448  97  71  104
-6.394909 8.119872 -21.490755  100  72  103
-6.394909 7.977003 -21.490755  107  79  111
-6.394909 7.762699 -21.490755  58  29  67
-6.394909 7.691265 -21.490755  95  66  108
-6.444535 3.213036 -21.916116  59  32  61
-6.444535 3.140184 -21.916116  65  38  67
-6.444535 3.067332 -21.916116  57  34  51
-6.444535 2.848774 -21.916116  247  231  253
-6.444535 2.775922 -21.916116  226  219  234
-6.444535 2.703070 -21.916116  173  166  181
-6.444535 2.557365 -21.916116  160  158  155
-6.722685 0.505567 -24.300262  183  185  192
-7.039118 -5.727882 -27.012547  173  171  176
-7.085449 -9.253013 -27.409665  144  63  0
-7.085449 -9.526506 -27.409665  208  153  97
-7.095225 -11.836894 -27.493458  88  128  0
-7.164061 -12.243991 -28.083486  146  170  82
-7.164502 -14.300729 -28.087263  147  158  171
-7.164502 -14.394152 -28.087263  151  162  176
-7.164502 -14.487575 -28.087263  152  174  176
-7.164502 -14.580998 -28.087263  147  169  172
-7.164502 -14.767844 -28.087263  125  158  144
-6.306352 12.606718 -20.157487  120  96  95
-6.306439 12.540240 -20.158215  123  99  97
-6.306506 12.473636 -20.158770  182  155  152
-6.314407 11.982015 -20.224614  172  157  148
-6.314575 11.915738 -20.226013  185  169  161
-6.321048 11.277896 -20.279958  164  146  132
-6.367255 10.355452 -20.665011  114  93  113
-6.367255 10.286770 -20.665011  57  36  56
-6.367255 10.218088 -20.665011  75  52  97
-6.367255 10.149406 -20.665011  110  87  132
-6.416547 8.562211 -21.075780  49  39  117
-6.418041 8.498136 -21.088229  84  63  123
-6.420096 8.436208 -21.105359  109  88  148
-6.431747 8.130120 -21.202448  100  74  112
-6.466344 8.119872 -21.490755  106  79  114
-6.466344 7.977003 -21.490755  111  84  119
-6.466344 7.762699 -21.490755  81  53  93
-6.466344 7.691265 -21.490755  110  83  125
-6.557612 3.730601 -22.251325  105  80  112
-6.557612 3.582661 -22.251325  68  44  75
-6.557612 3.508692 -22.251325  72  48  79
-6.557612 3.434722 -22.251325  66  43  73
-6.557612 3.360752 -22.251325  46  23  52
-6.557612 3.212813 -22.251325  41  18  48
-6.557612 3.138843 -22.251325  32  12  22
-6.557612 3.064873 -22.251325  101  81  91
-6.557612 2.916934 -22.251325  242  229  246
-6.557612 2.842964 -22.251325  224  219  231
-6.823096 0.031665 -24.463689  150  146  151
-7.131476 -5.821009 -27.033522  161  159  166
-7.131476 -5.910919 -27.033522  156  103  123
-7.177046 -9.162848 -27.413275  141  51  0
-7.177046 -9.254024 -27.413275  137  63  0
-7.177046 -9.527553 -27.413275  202  160  118
-7.177046 -9.801082 -27.413275  120  142  126
-7.177046 -9.892258 -27.413275  92  114  97
-7.186668 -11.745450 -27.493458  69  119  0
-7.186668 -11.836894 -27.493458  91  129  0
-7.260585 -12.253852 -28.109434  150  173  83
-7.262026 -14.503298 -28.121442  123  144  136
-6.373342 12.606718 -20.157487  113  89  88
-6.373432 12.540240 -20.158215  118  94  93
-6.373500 12.473636 -20.158770  180  153  149
-6.374768 12.011629 -20.169048  163  147  141
-6.381793 11.915738 -20.226013  134  118  110
-6.382332 11.851429 -20.230378  182  162  155
-6.387202 11.406199 -20.269864  151  127  130
-6.388447 11.277896 -20.279958  160  142  128
-6.435937 10.218088 -20.665011  85  62  107
-6.435937 9.393904 -20.665011  100  72  149
-6.486598 8.562211 -21.075780  49  39  117
-6.488133 8.498136 -21.088229  81  60  120
-6.490246 8.436208 -21.105359  106  86  145
-6.502220 8.130120 -21.202448  103  77  115
-6.537778 8.119872 -21.490755  103  76  110
-6.537778 7.834134 -21.490755  75  47  87
-6.537778 7.762699 -21.490755  88  61  100
-6.631589 4.100464 -22.251381  114  86  123
-6.631583 4.026482 -22.251335  103  76  111
-6.631583 3.952513 -22.251335  94  67  102
-6.648351 3.912077 -22.387286  88  62  96
-6.648351 3.837656 -22.387292  85  60  93
-6.648351 3.763233 -22.387292  75  51  83
-6.648351 3.688810 -22.387292  64  39  71
-6.648351 3.614387 -22.387292  55  31  62
-6.648351 3.242272 -22.387292  42  19  48
-6.648351 3.167849 -22.387292  37  18  28
-6.648351 3.093426 -22.387292  91  71  81
-6.648351 3.019003 -22.387292  185  172  189
-6.648351 2.944580 -22.387292  247  234  251
-6.648351 2.870157 -22.387292  228  223  235
-6.648351 2.572466 -22.387292  173  170  166
-6.904440 0.031665 -24.463689  147  143  148
-6.904440 -0.049679 -24.463689  173  169  174
-7.221386 -5.821009 -27.033522  171  169  176
-7.221386 -5.910919 -27.033522  165  112  132
-7.268222 -9.162848 -27.413275  144  54  0
-7.268222 -9.345200 -27.413275  187  114  42
-7.268222 -9.527553 -27.413275  204  162  119
-7.268222 -9.709905 -27.413275  162  154  160
-7.268222 -9.801082 -27.413275  122  144  128
-7.278112 -11.654007 -27.493458  68  119  0
-7.278112 -11.745450 -27.493458  74  125  0
-7.278112 -11.836894 -27.493458  102  141  0
-7.361908 -14.245838 -28.172888  150  152  173
-7.361908 -14.339546 -28.172888  80  90  103
-7.361908 -14.433254 -28.172888  26  35  48
-7.361908 -15.089212 -28.172888  54  68  45
-7.361908 -15.182921 -28.172888  104  119  96
-6.440332 12.606718 -20.157487  121  97  99
-6.440424 12.540240 -20.158215  131  106  109
-6.440495 12.473636 -20.158770  193  165  166
-6.440806 12.341352 -20.161230  184  162  156
-6.440882 12.274761 -20.161827  160  137  132
-6.440955 12.208155 -20.162407  154  135  129
-6.441177 12.142345 -20.164158  178  159  153
-6.441797 12.011629 -20.169048  167  152  146
-6.449012 11.915738 -20.226013  145  128  124
-6.449565 11.851429 -20.230378  187  167  164
-6.450891 11.723869 -20.240843  179  155  152
-6.451992 11.662310 -20.249536  170  146  143
-6.452515 11.597711 -20.253665  179  155  151
-6.454190 11.471643 -20.266894  193  169  164
-6.454567 11.406199 -20.269864  151  128  123
-6.455845 11.277896 -20.279958  159  143  132
-6.456976 11.148724 -20.288887  197  181  178
-6.457400 11.083394 -20.292235  177  159  163
-6.502224 11.030678 -20.646108  165  139  140
-6.503385 10.967651 -20.655274  142  116  117
-6.503855 10.901249 -20.658980  146  119  116
-6.504619 10.836226 -20.665011  172  145  143
-6.504619 10.424134 -20.665011  165  150  137
-6.504619 10.355452 -20.665011  100  84  95
-6.504619 10.286770 -20.665011  50  34  45
-6.504619 10.218088 -20.665011  72  53  95
-6.504619 9.737314 -20.665011  105  80  137
-6.572694 8.130120 -21.202448  102  77  119
-6.609213 8.119872 -21.490755  99  73  111
-6.609213 7.905568 -21.490755  128  102  139
-6.726389 4.366227 -22.415833  102  82  116
-6.726389 4.291709 -22.415833  103  84  118
-6.726389 4.217191 -22.415833  99  80  114
-6.726389 4.142673 -22.415833  86  67  100
-6.726389 4.068155 -22.415833  68  50  82
-6.726389 3.993637 -22.415833  54  35  68
-6.743043 3.951550 -22.547309  44  26  56
-6.743034 3.501795 -22.547236  50  34  59
-6.743034 3.276927 -22.547236  42  25  50
-6.743034 3.201971 -22.547236  43  25  37
-6.743034 3.127015 -22.547236  71  52  65
-6.743034 3.052058 -22.547236  168  155  176
-6.743034 2.902146 -22.547236  232  228  244
-6.743034 2.827190 -22.547236  183  179  195
-6.743034 2.602322 -22.547236  170  168  165
-6.985785 0.031666 -24.463692  146  142  147
-7.311297 -5.910919 -27.033522  164  143  158
-7.363071 -9.262142 -27.442266  171  102  52
-7.363071 -9.353414 -27.442266  204  136  86
-7.363071 -9.809779 -27.442266  139  158  160
-7.363071 -9.992325 -27.442266  90  119  65
-7.466849 -14.379747 -28.261566  116  123  134
-7.466849 -14.943770 -28.261566  125  158  125
-7.466849 -15.037774 -28.261566  117  150  117
-7.466849 -15.131778 -28.261566  133  149  122
-6.507417 12.540240 -20.158215  127  102  105
-6.507489 12.473636 -20.158770  187  159  160
-6.507809 12.341352 -20.161230  165  142  136
-6.507962 12.208155 -20.162407  133  114  108
-6.508190 12.142345 -20.164158  173  154  148
-6.508825 12.011629 -20.169048  157  141  135
-6.516231 11.915738 -20.226013  135  119  114
-6.516798 11.851429 -20.230378  186  165  162
-6.517576 11.788166 -20.236363  180  160  157
-6.518159 11.723869 -20.240843  155  131  129
-6.519826 11.597711 -20.253665  157  133  129
-6.521545 11.471643 -20.266894  192  169  164
-6.521931 11.406199 -20.269864  150  127  122
-6.523244 11.277896 -20.279958  157  141  131
-6.524404 11.148724 -20.288887  185  169  165
-6.524840 11.083394 -20.292235  142  123  127
-6.540452 11.090812 -20.412328  137  119  123
-6.540452 11.022973 -20.412328  170  148  153
-6.570843 11.030678 -20.646108  169  142  144
-6.572517 10.901249 -20.658980  145  118  115
-6.573301 10.698862 -20.665011  179  154  152
-6.573301 10.630180 -20.665011  159  137  137
-6.573301 10.492816 -20.665011  179  164  151
-6.573301 10.424134 -20.665011  152  137  123
-6.573301 10.355452 -20.665011  81  65  76
-6.573301 10.218088 -20.665011  75  56  98
-6.573301 9.943360 -20.665011  113  87  147
-6.573301 9.737314 -20.665011  97  72  129
-6.573301 9.599950 -20.665011  97  74  132
-6.573301 9.187858 -20.665011  69  50  120
-6.626701 8.562211 -21.075780  53  46  107
-6.628319 8.498136 -21.088229  79  60  119
-6.643167 8.130120 -21.202448  102  77  118
-6.680647 8.119872 -21.490755  99  73  111
-6.800907 4.813336 -22.415833  78  52  87
-6.800907 4.738818 -22.415833  82  55  91
-6.800907 4.664300 -22.415833  102  76  112
-6.800907 4.589782 -22.415833  100  73  109
-6.800907 4.515264 -22.415833  80  53  90
-6.800907 4.440746 -22.415833  73  47  83
-6.800907 4.366227 -22.415833  63  44  78
-6.800907 4.291709 -22.415833  66  47  81
-6.800907 4.217191 -22.415833  65  46  80
-6.838071 3.687751 -22.701710  45  28  55
-6.838071 3.234925 -22.701710  36  18  30
-6.838071 3.083983 -22.701710  145  132  153
-6.838071 2.933041 -22.701710  233  229  245
-6.838071 2.782099 -22.701710  148  149  149
-6.838071 2.631157 -22.701710  170  169  166
-7.067129 0.031666 -24.463692  146  142  148
-7.401207 -5.910919 -27.033522  186  165  180
-7.401207 -6.090740 -27.033522  126  88  70
-7.457816 -9.086896 -27.468974  148  54  0
-7.457816 -9.178258 -27.468974  180  86  25
-7.457816 -9.269620 -27.468974  197  128  78
-7.457816 -9.817791 -27.468974  148  166  168
-7.457816 -10.000515 -27.468974  101  129  75
-7.457816 -10.091877 -27.468974  81  110  56
-7.450803 -11.534067 -27.415027  68  117  0
-7.460999 -11.745450 -27.493458  98  149  0
-7.566894 -12.235161 -28.308034  154  176  98
-7.567265 -14.684612 -28.310890  164  180  178
-7.567265 -14.872949 -28.310890  126  153  132
-7.567265 -14.967117 -28.310890  124  157  124
-7.567265 -15.061285 -28.310890  124  157  124
-7.567265 -15.155453 -28.310890  157  172  145
-6.574410 12.540240 -20.158215  146  122  125
-6.574484 12.473636 -20.158770  198  170  172
-6.574812 12.341352 -20.161230  161  141  117
-6.574969 12.208155 -20.162407  147  129  115
-6.575202 12.142345 -20.164158  183  165  150
-6.583450 11.915738 -20.226013  144  125  134
-6.584032 11.851429 -20.230378  197  174  184
-6.584830 11.788166 -20.236363  190  167  177
-6.585427 11.723869 -20.240843  152  128  129
-6.587137 11.597711 -20.253665  163  140  127
-6.590642 11.277896 -20.279958  169  155  151
-6.591833 11.148724 -20.288887  178  163  167
-6.592279 11.083394 -20.292235  129  112  122
-6.608292 11.090812 -20.412328  111  94  104
-6.608292 11.022973 -20.412328  170  148  158
-6.639462 11.030678 -20.646108  169  144  145
-6.641178 10.901249 -20.658980  154  129  121
-6.641983 10.836226 -20.665011  182  156  149
-6.641983 10.698862 -20.665011  159  136  124
-6.641983 10.630180 -20.665011  120  101  88
-6.641983 10.492816 -20.665011  164  151  145
-6.641983 10.424134 -20.665011  136  122  116
-6.641983 10.286770 -20.665011  50  35  53
-6.641983 10.218088 -20.665011  72  54  102
-6.641983 9.943360 -20.665011  102  78  137
-6.641983 9.599950 -20.665011  104  83  129
-6.641983 9.187858 -20.665011  74  55  127
-6.696752 8.562211 -21.075780  52  43  102
-6.698412 8.498136 -21.088229  80  63  117
-6.713641 8.130120 -21.202448  92  69  111
-6.932697 5.240270 -22.845370  92  72  108
-6.932697 5.164320 -22.845370  93  73  109
-6.932697 5.088370 -22.845370  92  72  107
-6.932697 5.012420 -22.845370  73  53  87
-6.932697 4.936470 -22.845370  51  31  64
-6.932697 4.860520 -22.845370  42  22  55
-6.932697 4.784570 -22.845370  46  27  57
-6.932697 4.708620 -22.845370  52  32  62
-6.932697 4.632671 -22.845370  50  31  59
-6.919214 3.243999 -22.744243  43  24  41
-6.919214 3.092773 -22.744243  139  125  151
-6.919214 2.941548 -22.744243  229  224  246
-6.919214 2.865935 -22.744243  193  188  210
-6.919214 2.639096 -22.744243  159  157  157
-7.148473 0.031666 -24.463692  140  136  142
-7.491117 -6.000829 -27.033522  166  155  152
-7.491117 -6.090740 -27.033522  150  117  106
-7.491117 -6.180650 -27.033522  116  82  72
-7.549178 -8.904172 -27.468974  118  56  0
-7.549178 -8.995534 -27.468974  142  80  3
-7.549178 -9.086896 -27.468974  165  114  50
-7.549178 -9.178258 -27.468974  190  139  75
-7.549178 -9.909153 -27.468974  142  156  159
-7.549178 -10.000515 -27.468974  123  139  127
-7.549178 -10.091877 -27.468974  99  115  103
-7.541985 -11.442884 -27.415027  71  112  0
-7.552442 -11.654007 -27.493458  101  141  27
-7.552442 -11.745450 -27.493458  128  169  54
-6.641402 12.540240 -20.158215  141  116  120
-6.641478 12.473636 -20.158770  194  166  168
-6.641629 12.407408 -20.159871  196  168  170
-6.641815 12.341352 -20.161230  167  147  123
-6.641975 12.208155 -20.162407  149  132  117
-6.642215 12.142345 -20.164158  188  171  156
-6.642541 12.076954 -20.166543  195  178  177
-6.642883 12.011629 -20.169048  155  138  137
-6.650668 11.915738 -20.226013  145  126  135
-6.652083 11.788166 -20.236363  190  167  177
-6.652695 11.723869 -20.240843  158  133  135
-6.654447 11.597711 -20.253665  171  148  135
-6.656255 11.471643 -20.266894  186  165  141
-6.656661 11.406199 -20.269864  148  127  104
-6.658041 11.277896 -20.279958  161  147  144
-6.676131 11.090812 -20.412328  116  99  109
-6.676131 11.022973 -20.412328  177  155  165
-6.708081 11.030678 -20.646108  158  133  134
-6.709840 10.901249 -20.658980  148  123  115
-6.710665 10.836226 -20.665011  185  160  152
-6.710665 10.767544 -20.665011  192  169  157
-6.710665 10.698862 -20.665011  164  142  129
-6.710665 10.492816 -20.665011  175  162  156
-6.710665 10.424134 -20.665011  137  124  118
-6.710665 10.355452 -20.665011  79  65  83
-6.710665 10.286770 -20.665011  57  43  61
-6.710665 10.218088 -20.665011  87  69  117
-6.710665 10.080724 -20.665011  111  90  152
-6.710665 9.943360 -20.665011  110  86  145
-6.710665 9.599950 -20.665011  102  81  127
-6.710665 9.325222 -20.665011  82  59  132
-6.710665 9.256540 -20.665011  72  53  125
-6.710665 9.119176 -20.665011  44  31  99
-6.768504 8.498136 -21.088229  67  51  105
-6.784114 8.130120 -21.202448  97  74  116
-6.823516 8.119872 -21.490755  92  68  106
-6.823516 7.476961 -21.490755  90  67  100
-7.033298 5.600587 -23.025745  79  58  95
-7.033298 5.524036 -23.025745  86  66  103
-7.033298 5.447484 -23.025745  90  69  106
-7.033298 5.370933 -23.025745  80  60  96
-7.033298 5.294382 -23.025745  67  47  83
-7.033298 5.217831 -23.025745  61  41  77
-7.033298 5.141280 -23.025745  52  31  66
-7.033298 5.064729 -23.025745  45  25  60
-6.999798 3.630430 -22.780620  42  31  49
-6.999798 3.554695 -22.780620  46  34  52
-6.999798 3.478961 -22.780620  47  35  52
-6.999798 3.403227 -22.780620  46  34  51
-6.999798 3.327493 -22.780620  46  34  51
-6.999798 3.251759 -22.780620  49  29  47
-6.999798 3.100291 -22.780620  140  126  152
-6.999798 2.948823 -22.780620  234  230  251
-6.999798 2.873089 -22.780620  199  194  216
-6.999798 2.797355 -22.780620  159  158  164
-7.229818 -0.049679 -24.463692  163  159  165
-7.581028 -6.000829 -27.033522  182  170  168
-7.581028 -6.090740 -27.033522  184  151  140
-7.581028 -6.180650 -27.033522  150  117  106
-7.581028 -6.270561 -27.033522  136  74  45
-7.581028 -6.360471 -27.033522  118  56  27
-7.645236 -8.730384 -27.503341  145  66  0
-7.645236 -8.821860 -27.503341  153  73  7
-7.645236 -8.913337 -27.503341  173  111  34
-7.645236 -9.004813 -27.503341  189  128  51
-7.645236 -9.096290 -27.503341  202  151  87
-7.645236 -10.011054 -27.503341  144  160  148
-7.645236 -10.102531 -27.503341  123  139  127
-7.645236 -10.194007 -27.503341  103  119  86
-7.633167 -11.534067 -27.415027  102  143  25
-7.643886 -11.654007 -27.493458  123  163  49
-7.769348 -14.731217 -28.411476  111  121  133
-7.769348 -14.825721 -28.411476  60  76  89
-7.769348 -14.920224 -28.411476  47  63  76
-7.769348 -15.014728 -28.411476  51  71  83
-7.769348 -15.203735 -28.411476  50  69  41
-7.769348 -15.298238 -28.411476  94  112  85
-7.769348 -15.392742 -28.411476  139  152  134
-6.708395 12.540240 -20.158215  136  115  115
-6.708473 12.473636 -20.158770  182  158  157
-6.708627 12.407408 -20.159871  185  160  160
-6.708817 12.341352 -20.161230  154  138  108
-6.708982 12.208155 -20.162407  141  127  109
-6.709227 12.142345 -20.164158  184  170  152
-6.709561 12.076954 -20.166543  189  174  175
-6.709912 12.011629 -20.169048  147  133  134
-6.717887 11.915738 -20.226013  145  128  142
-6.718498 11.851429 -20.230378  201  180  196
-6.719336 11.788166 -20.236363  189  168  184
-6.719963 11.723869 -20.240843  152  130  133
-6.721758 11.597711 -20.253665  170  150  134
-6.723610 11.471643 -20.266894  187  170  140
-6.724026 11.406199 -20.269864  144  127  97
-6.725044 11.343487 -20.277134  124  113  109
-6.725439 11.277896 -20.279958  166  155  152
-6.726689 11.148724 -20.288887  185  172  177
-6.727158 11.083394 -20.292235  127  112  124
-6.743971 11.090812 -20.412328  118  102  114
-6.743971 11.022973 -20.412328  181  161  171
-6.776700 11.030678 -20.646108  172  148  149
-6.778502 10.901249 -20.658980  156  132  121
-6.779347 10.836226 -20.665011  194  170  158
-6.779347 10.767544 -20.665011  194  173  154
-6.779347 10.698862 -20.665011  155  135  116
-6.779347 10.492816 -20.665011  173  158  171
-6.779347 10.424134 -20.665011  129  114  128
-6.779347 10.355452 -20.665011  69  53  88
-6.779347 10.286770 -20.665011  50  34  69
-6.779347 10.218088 -20.665011  81  63  122
-6.779347 10.080724 -20.665011  107  85  153
-6.779347 9.943360 -20.665011  105  81  142
-6.779347 9.805996 -20.665011  131  107  157
-6.779347 9.737314 -20.665011  101  76  127
-6.779347 9.599950 -20.665011  106  84  130
-6.779347 9.462586 -20.665011  116  96  144
-6.779347 9.393904 -20.665011  98  73  152
-6.779347 9.325222 -20.665011  86  61  140
-6.779347 9.256540 -20.665011  78  57  135
-6.779347 9.187858 -20.665011  71  50  128
-6.838597 8.498136 -21.088229  76  62  110
-6.854588 8.130120 -21.202448  94  73  112
-6.936502 6.154129 -21.787550  94  72  104
-7.108314 5.903208 -23.014776  93  75  110
-7.108314 5.826693 -23.014776  92  74  108
-7.108314 5.750179 -23.014776  84  69  102
-7.108314 5.673664 -23.014776  68  52  85
-7.108314 5.597150 -23.014776  49  34  68
-7.108314 5.520635 -23.014776  41  26  60
-7.108314 5.444121 -23.014776  39  23  58
-7.073593 4.157059 -22.766769  47  36  53
-7.073592 4.081370 -22.766763  41  30  47
-7.073592 4.005682 -22.766763  40  29  44
-7.073586 3.929983 -22.766720  45  34  48
-7.073586 3.854296 -22.766720  53  42  53
-7.073586 3.778608 -22.766720  51  39  51
-7.073586 3.702920 -22.766720  52  41  50
-7.073586 3.627233 -22.766720  60  49  58
-7.073586 3.551545 -22.766720  68  56  63
-7.073586 3.248794 -22.766720  47  27  38
-7.073586 3.097419 -22.766720  130  116  137
-7.073586 3.021731 -22.766720  239  225  246
-7.073586 2.870355 -22.766720  199  193  213
-7.073586 2.643292 -22.766720  158  155  155
-7.304881 -0.052520 -24.418830  164  160  166
-7.670938 -6.090740 -27.033522  187  173  194
-7.670938 -6.180650 -27.033522  171  157  178
-7.670938 -6.270561 -27.033522  165  126  139
-7.670938 -6.360471 -27.033522  140  101  114
-7.670938 -6.450381 -27.033522  133  78  59
-7.670938 -6.540292 -27.033522  119  63  45
-7.670938 -6.630202 -27.033522  127  65  9
-7.670938 -6.720113 -27.033522  123  62  5
-7.731235 -7.806751 -27.464217  141  54  0
-7.731422 -7.898404 -27.465550  138  50  0
-7.731602 -7.990053 -27.466831  132  51  0
-7.731785 -8.081717 -27.468139  133  52  0
-7.731962 -8.173381 -27.469407  128  55  0
-7.731968 -8.264754 -27.469446  131  57  1
-7.731969 -8.356120 -27.469456  133  66  16
-7.731969 -8.447483 -27.469456  146  79  29
-7.731969 -8.538847 -27.469456  160  97  54
-7.731969 -8.630210 -27.469456  179  116  74
-7.731969 -8.721574 -27.469456  196  135  97
-7.731969 -8.812937 -27.469456  208  147  109
-7.731969 -8.904301 -27.469456  174  156  144
-7.731969 -8.995664 -27.469456  175  157  145
-7.731969 -10.092026 -27.469456  151  154  165
-7.731969 -10.183390 -27.469456  132  141  139
-7.731969 -10.274753 -27.469456  114  123  122
-7.731969 -10.366117 -27.469456  88  117  30
-7.731901 -11.188220 -27.468974  73  112  0
-7.724349 -11.260520 -27.415027  78  114  0
-7.724349 -11.351702 -27.415027  90  125  1
-7.724349 -11.442884 -27.415027  114  145  52
-7.724349 -11.534067 -27.415027  141  171  79
-7.868623 -12.003108 -28.445553  152  179  108
-7.869731 -14.656032 -28.453473  141  150  151
-7.869731 -14.750675 -28.453473  104  113  114
-7.869731 -14.845319 -28.453473  87  101  98
-7.869731 -14.939962 -28.453473  119  133  130
-7.869731 -15.034606 -28.453473  139  157  150
-7.869731 -15.223893 -28.453473  92  111  90
-7.869731 -15.318537 -28.453473  103  122  101
-7.869731 -15.413180 -28.453473  136  149  135
-6.775284 12.606718 -20.157487  146  126  126
-6.775388 12.540240 -20.158215  164  143  144
-6.775625 12.407408 -20.159871  197  173  172
-6.775820 12.341352 -20.161230  154  138  108
-6.775906 12.274761 -20.161827  125  109  79
-6.775989 12.208155 -20.162407  146  132  114
-6.776582 12.076954 -20.166543  178  164  164
-6.776941 12.011629 -20.169048  142  128  129
-6.784905 11.982015 -20.224614  112  95  110
-6.785106 11.915738 -20.226013  138  121  136
-6.786589 11.788166 -20.236363  179  158  174
-6.787231 11.723869 -20.240843  140  117  121
-6.789069 11.597711 -20.253665  168  148  132
-6.790965 11.471643 -20.266894  187  170  140
-6.791391 11.406199 -20.269864  140  123  93
-6.792433 11.343487 -20.277134  128  117  114
-6.792838 11.277896 -20.279958  165  154  151
-6.794118 11.148724 -20.288887  177  165  169
-6.811811 11.090812 -20.412328  120  105  117
-6.811811 11.022973 -20.412328  183  163  173
-6.845319 11.030678 -20.646108  163  139  140
-6.847164 10.901249 -20.658980  148  124  113
-6.848029 10.836226 -20.665011  189  165  154
-6.848029 10.767544 -20.665011  189  169  150
-6.848029 10.698862 -20.665011  151  130  111
-6.848029 10.561498 -20.665011  164  146  125
-6.848029 10.492816 -20.665011  169  154  168
-6.848029 10.424134 -20.665011  134  119  133
-6.848029 10.355452 -20.665011  80  64  99
-6.848029 10.218088 -20.665011  84  65  124
-6.848029 10.080724 -20.665011  104  82  151
-6.848029 9.943360 -20.665011  110  86  147
-6.848029 9.805996 -20.665011  136  112  163
-6.848029 9.737314 -20.665011  101  77  127
-6.848029 9.599950 -20.665011  106  84  130
-6.848029 9.393904 -20.665011  94  69  148
-6.908690 8.498136 -21.088229  71  57  105
-6.966385 8.119872 -21.490755  94  71  107
-6.966385 7.977003 -21.490755  102  80  113
-7.005862 6.508268 -21.766177  86  64  95
-7.007075 6.366666 -21.774639  80  57  90
-7.007865 6.296286 -21.780147  88  65  98
-7.008442 6.225337 -21.784173  81  59  92
-7.009462 6.083025 -21.791286  77  56  86
-7.043203 6.092980 -22.026691  87  66  96
-7.162540 6.308388 -22.859274  86  67  94
-7.186902 6.290749 -23.029246  70  51  78
-7.186902 6.214186 -23.029246  68  50  77
-7.199833 6.167995 -23.119458  82  64  91
-7.198703 6.088504 -23.111577  83  64  95
-7.198703 6.011667 -23.111577  63  45  75
-7.198703 5.934830 -23.111577  44  26  60
-7.198703 5.857992 -23.111577  37  19  53
-7.198703 5.781155 -23.111577  34  18  51
-7.198703 4.705434 -23.111577  39  26  45
-7.198703 4.551759 -23.111577  47  37  56
-7.198703 4.244410 -23.111577  56  45  62
-7.198703 4.167573 -23.111577  53  42  59
-7.149163 4.005480 -22.765945  54  43  57
-7.149166 3.929800 -22.765966  62  50  65
-7.149166 3.854115 -22.765969  77  65  77
-7.149166 3.778430 -22.765969  69  58  70
-7.149166 3.097263 -22.765969  123  109  130
-7.149166 3.021578 -22.765969  231  217  239
-7.149166 2.870208 -22.765969  201  195  214
-7.149166 2.643152 -22.765969  161  158  159
-7.386076 0.434649 -24.418830  173  175  184
-7.386076 -0.052520 -24.418830  160  156  163
-7.751790 -6.259607 -26.970326  196  157  170
-7.754531 -6.352684 -26.989446  188  149  162
-7.754531 -6.442448 -26.989446  182  126  108
-7.754531 -6.532211 -26.989446  162  107  89
-7.754531 -6.621975 -26.989446  151  90  33
-7.754531 -6.711738 -26.989446  142  81  24
-7.754531 -6.801502 -26.989446  137  72  0
-7.754531 -6.891265 -26.989446  131  65  0
-7.776463 -7.011632 -27.142461  133  59  0
-7.778023 -7.104118 -27.153345  132  58  0
-7.779739 -7.196902 -27.165315  134  52  2
-7.780990 -7.289084 -27.174041  133  51  1
-7.782394 -7.381554 -27.183842  144  48  0
-7.783561 -7.473729 -27.191982  150  54  0
-7.785034 -7.566429 -27.202260  158  65  0
-7.786279 -7.658840 -27.210941  170  77  10
-7.793855 -8.214713 -27.263801  201  127  70
-7.794855 -8.307112 -27.270775  202  134  85
-7.794855 -8.397813 -27.270775  209  141  92
-7.794855 -8.488514 -27.270775  210  147  104
-7.794855 -8.579215 -27.270775  212  149  106
-7.794855 -8.669917 -27.270775  211  150  112
-7.794855 -10.211838 -27.270775  142  150  149
-7.794855 -10.393240 -27.270775  106  136  49
-7.794855 -10.483941 -27.270775  97  129  23
-7.794855 -10.574643 -27.270775  88  121  15
-7.794855 -10.665344 -27.270775  83  120  0
-7.794855 -10.756045 -27.270775  81  118  0
-7.794855 -10.846746 -27.270775  82  122  0
-7.928706 -11.258067 -28.204619  84  124  0
-7.928702 -11.351871 -28.204590  93  133  0
-7.928885 -11.446134 -28.205872  105  145  0
-7.931839 -11.547233 -28.226479  120  155  30
-7.935268 -11.649654 -28.250405  131  166  41
-7.956046 -14.629301 -28.395363  138  146  148
-7.956046 -14.723751 -28.395363  97  105  107
-7.956046 -14.912651 -28.395363  144  158  155
-7.956046 -15.007101 -28.395363  157  175  168
-7.956046 -15.101550 -28.395363  132  150  143
-7.956046 -15.196000 -28.395363  102  121  100
-7.956046 -15.290450 -28.395363  93  112  90
-7.956046 -15.384900 -28.395363  117  130  117
-6.842274 12.606718 -20.157487  162  148  143
-6.842381 12.540240 -20.158215  172  158  153
-6.842462 12.473636 -20.158770  188  170  165
-6.842623 12.407408 -20.159871  182  164  158
-6.842823 12.341352 -20.161230  174  161  144
-6.842910 12.274761 -20.161827  157  144  127
-6.842995 12.208155 -20.162407  169  159  148
-6.843252 12.142345 -20.164158  184  174  163
-6.843602 12.076954 -20.166543  179  171  169
-6.843969 12.011629 -20.169048  161  152  151
-6.852324 11.915738 -20.226013  157  146  152
-6.852965 11.851429 -20.230378  194  179  187
-6.853842 11.788166 -20.236363  181  167  174
-6.854499 11.723869 -20.240843  155  139  140
-6.856380 11.597711 -20.253665  176  160  151
-6.857331 11.534612 -20.260146  189  174  165
-6.858320 11.471643 -20.266894  176  163  146
-6.858756 11.406199 -20.269864  133  119  103
-6.859822 11.343487 -20.277134  134  126  113
-6.860236 11.277896 -20.279958  162  154  141
-6.860956 11.213604 -20.284864  183  175  171
-6.861546 11.148724 -20.288887  167  158  154
-6.862037 11.083394 -20.292235  124  111  118
-6.879651 11.090812 -20.412328  129  116  123
-6.879651 11.022973 -20.412328  181  162  171
-6.913169 11.096062 -20.640861  196  178  186
-6.913938 11.030678 -20.646108  159  136  137
-6.915826 10.901249 -20.658980  150  127  117
-6.916711 10.836226 -20.665011  188  164  155
-6.916711 10.767544 -20.665011  188  167  150
-6.916711 10.698862 -20.665011  153  132  115
-6.916711 10.424134 -20.665011  149  135  146
-6.916711 10.355452 -20.665011  105  90  119
-6.916711 10.286770 -20.665011  84  69  98
-6.916711 10.218088 -20.665011  104  87  135
-6.916711 10.080724 -20.665011  113  93  147
-6.916711 9.943360 -20.665011  100  77  124
-6.916711 9.599950 -20.665011  111  88  128
-6.916711 9.187858 -20.665011  73  54  115
-6.916711 9.119176 -20.665011  45  31  89
-6.916711 8.981811 -20.665011  44  32  86
-6.975776 8.628343 -21.067727  36  22  78
-6.976957 8.562211 -21.075780  47  32  88
-6.995535 8.130120 -21.202448  94  75  111
-7.037820 8.119872 -21.490755  100  79  112
-7.037820 7.977003 -21.490755  102  82  110
-7.037820 7.476961 -21.490755  89  71  97
-7.037820 7.334092 -21.490755  84  65  93
-7.037820 7.191223 -21.490755  82  63  93
-7.037820 7.048354 -21.490755  100  81  114
-7.078215 6.508268 -21.766177  86  67  90
-7.263465 6.214186 -23.029246  48  34  51
-7.275540 6.088504 -23.111577  53  38  60
-7.275540 5.396969 -23.111577  39  24  56
-7.275540 4.935946 -23.111577  40  26  49
-7.275540 4.859108 -23.111577  51  38  54
