ply
format ascii 1.0
element face 0
property list uint8 int32 vertex_indices
element vertex 1060
property float x
property float y
property float z
property uchar diffuse_red 
property uchar diffuse_green 
property uchar diffuse_blue 
end_header
-0.632234 -8.581512 -28.568111  153  66  0
-0.624838 -12.661868 -28.814659  77  118  0
-0.624838 -12.757435 -28.814658  89  121  11
-0.775033 18.082694 -26.766088  184  155  155
-0.774911 17.997198 -26.770654  193  164  164
-0.774474 17.920024 -26.787040  200  171  173
-0.773719 17.762224 -26.815347  184  154  158
-0.773137 17.688545 -26.837198  191  161  165
-0.772698 17.610976 -26.853649  188  160  167
-0.771788 17.545479 -26.887754  189  162  168
-0.736588 12.375958 -28.207752  63  40  41
-0.736588 12.188871 -28.207752  65  45  45
-0.736588 12.095328 -28.207752  80  60  60
-0.736588 11.908241 -28.207752  58  41  38
-0.736588 11.814698 -28.207752  59  46  40
-0.736588 11.721154 -28.207752  60  47  40
-0.736588 11.627611 -28.207752  58  47  39
-0.736588 10.879264 -28.207752  45  35  33
-0.788568 5.186012 -26.258511  98  56  87
-0.788568 5.098966 -26.258511  92  50  81
-0.788568 4.924874 -26.258511  243  213  237
-0.788568 4.837828 -26.258511  247  238  254
-0.788568 4.750782 -26.258511  206  197  212
-0.788568 4.489645 -26.258511  165  160  164
-0.789966 1.785805 -26.206095  181  180  190
-0.729721 -4.777677 -28.465291  160  150  162
-0.729721 -4.966481 -28.465291  118  81  80
-0.729721 -5.532892 -28.465291  151  63  0
-0.729721 -5.627293 -28.465291  149  73  18
-0.729721 -5.721695 -28.465291  168  92  37
-0.729721 -5.816097 -28.465291  170  110  70
-0.729721 -5.910499 -28.465291  183  124  84
-0.729721 -6.004901 -28.465291  181  135  108
-0.729721 -6.099303 -28.465291  181  134  107
-0.729721 -6.193704 -28.465291  189  149  129
-0.729721 -6.288106 -28.465291  190  150  130
-0.729721 -6.382508 -28.465291  190  151  135
-0.729721 -6.476910 -28.465291  191  152  136
-0.729721 -6.571312 -28.465291  194  154  140
-0.724612 -6.704666 -28.656862  196  157  142
-0.724612 -6.799707 -28.656862  197  157  143
-0.724612 -6.894747 -28.656862  196  156  143
-0.724612 -6.989788 -28.656862  191  152  170
-0.724612 -7.084828 -28.656862  194  154  173
-0.726857 -7.161350 -28.572689  199  159  169
-0.726882 -7.255901 -28.571750  202  161  172
-0.726882 -7.350657 -28.571750  202  161  164
-0.726114 -7.452039 -28.600555  198  156  159
-0.726114 -7.546892 -28.600555  190  151  150
-0.726114 -7.641744 -28.600555  185  146  145
-0.726139 -7.736373 -28.599619  182  142  137
-0.726144 -7.831175 -28.599426  170  130  126
-0.726144 -7.926024 -28.599426  160  114  98
-0.726144 -8.684816 -28.599426  155  89  39
-0.726144 -8.874514 -28.599426  170  146  98
-0.726144 -8.969363 -28.599426  136  113  65
-0.725664 -10.018453 -28.617401  81  120  0
-0.725456 -10.115884 -28.625200  78  117  0
-0.725456 -10.210819 -28.625200  72  113  0
-0.725456 -10.305753 -28.625200  70  111  0
-0.725456 -10.400688 -28.625200  73  116  5
-0.725456 -11.350037 -28.625200  69  114  0
-0.725456 -11.444972 -28.625200  74  118  0
-0.725456 -11.539907 -28.625200  69  116  0
-0.725456 -11.634842 -28.625200  73  120  0
-0.725456 -11.729776 -28.625200  75  114  0
-0.725456 -11.824711 -28.625200  77  115  0
-0.725456 -11.919646 -28.625200  80  116  1
-0.725456 -12.014581 -28.625200  75  110  0
-0.725456 -12.109516 -28.625200  72  109  0
-0.719765 -12.289111 -28.838630  80  116  0
-0.719766 -12.384744 -28.838597  77  112  0
-0.719766 -12.480388 -28.838589  79  114  0
-0.719766 -12.576034 -28.838589  82  115  0
-0.719766 -12.671680 -28.838589  85  119  1
-0.719766 -12.767326 -28.838590  98  127  13
-0.719766 -12.958619 -28.838590  143  163  80
-0.855537 18.334394 -27.118939  149  120  120
-0.855537 17.974738 -27.118939  129  99  103
-0.855537 17.884824 -27.118939  134  104  108
-0.855537 17.794910 -27.118939  168  140  146
-0.855537 17.704996 -27.118939  181  154  160
-0.831895 12.340197 -28.132201  54  32  32
-0.831895 12.153614 -28.132201  56  36  36
-0.831895 11.967031 -28.132201  69  53  50
-0.831895 11.873740 -28.132201  81  64  61
-0.831895 11.780448 -28.132201  59  46  39
-0.831895 11.687157 -28.132201  61  48  41
-0.831895 11.593865 -28.132201  59  48  40
-0.872845 5.126256 -26.377164  79  36  67
-0.872845 4.951373 -26.377164  234  203  227
-0.872845 4.514166 -26.377164  165  161  165
-0.824275 -4.776781 -28.458737  161  151  163
-0.824275 -4.965541 -28.458737  119  81  80
-0.824275 -5.437441 -28.458737  160  72  7
-0.824275 -5.531821 -28.458737  170  83  18
-0.824275 -5.626201 -28.458737  191  115  60
-0.824275 -5.720581 -28.458737  222  146  91
-0.824275 -5.814961 -28.458737  223  163  124
-0.824275 -5.909341 -28.458737  230  171  131
-0.824275 -6.003721 -28.458737  224  178  151
-0.821027 -7.830813 -28.597938  208  169  164
-0.821010 -7.925845 -28.598701  206  160  144
-0.821010 -8.020692 -28.598701  177  131  116
-0.821010 -8.589771 -28.598701  149  59  0
-0.821010 -8.779464 -28.598701  187  121  71
-0.821010 -8.969157 -28.598701  140  117  69
-0.821010 -9.633083 -28.598701  82  129  0
-0.820358 -9.736586 -28.626624  87  135  1
-0.820272 -9.832688 -28.630334  94  145  4
-0.820272 -9.927640 -28.630334  101  151  11
-0.820272 -10.022592 -28.630334  100  140  20
-0.819962 -10.121830 -28.643592  101  141  21
-0.819962 -10.216827 -28.643592  101  142  26
-0.819962 -10.311823 -28.643592  102  143  27
-0.819962 -10.406819 -28.643592  102  146  35
-0.819962 -11.261785 -28.643592  80  125  0
-0.819962 -11.356781 -28.643592  86  130  0
-0.819962 -11.451777 -28.643592  100  144  0
-0.819962 -11.546773 -28.643592  118  165  11
-0.819962 -11.641769 -28.643592  121  168  15
-0.819962 -11.736765 -28.643592  122  161  44
-0.819962 -11.831762 -28.643592  123  161  45
-0.819962 -11.926758 -28.643592  127  163  48
-0.819962 -12.021754 -28.643592  123  158  44
-0.814841 -12.203078 -28.863069  121  158  32
-0.814841 -12.298806 -28.863069  127  164  38
-0.814841 -12.394533 -28.863069  134  169  53
-0.814841 -12.490261 -28.863069  134  170  53
-0.814842 -12.585975 -28.863036  134  168  50
-0.814842 -12.681693 -28.863011  131  165  47
-0.814842 -12.777421 -28.863011  135  163  50
-0.814842 -13.638969 -28.863011  93  103  105
-0.814842 -13.734696 -28.863011  45  65  62
-0.943241 18.413232 -27.229459  149  121  120
-0.943241 18.052102 -27.229459  134  106  108
-0.943241 17.961820 -27.229459  126  98  100
-0.943241 17.871538 -27.229459  126  101  113
-0.943241 17.781255 -27.229459  158  133  145
-0.943241 17.690973 -27.229459  185  158  166
-0.921499 12.427469 -28.316578  47  25  29
-0.921499 12.333563 -28.316578  69  47  51
-0.921499 12.239657 -28.316578  78  56  59
-0.921499 12.145750 -28.316578  84  63  66
-0.921499 11.957938 -28.316578  57  38  38
-0.958731 5.144148 -26.454954  86  42  75
-0.958731 4.968746 -26.454954  237  205  229
-0.958731 4.793345 -26.454954  218  207  221
-0.958731 4.705644 -26.454954  166  161  166
-0.958731 4.617944 -26.454954  143  138  143
-0.958731 4.530243 -26.454954  154  149  156
-0.961153 1.799010 -26.333884  181  180  190
-0.961153 1.275227 -26.333884  150  145  151
-0.918787 -4.775884 -28.452172  166  161  173
-0.918787 -4.964600 -28.452172  120  87  95
-0.918787 -5.436391 -28.452172  151  82  31
-0.918787 -5.530749 -28.452172  171  102  51
-0.914907 -8.792588 -28.646137  183  107  53
-0.914907 -8.982597 -28.646137  156  118  74
-0.914907 -9.647630 -28.646137  86  129  1
-0.914907 -9.742635 -28.646137  105  148  20
-0.914907 -9.837639 -28.646137  126  175  40
-0.914907 -9.932644 -28.646137  143  192  57
-0.914383 -10.036046 -28.672379  159  174  134
-0.914383 -10.131138 -28.672379  161  176  136
-0.914383 -10.226230 -28.672379  158  175  148
-0.914383 -10.416415 -28.672379  148  170  149
-0.914383 -11.272244 -28.672379  82  127  0
-0.914383 -11.367336 -28.672379  96  140  4
-0.910241 -13.646265 -28.879468  73  82  92
-0.910241 -13.837829 -28.879468  35  56  50
-0.910241 -13.933612 -28.879468  88  118  97
-1.029199 18.598302 -27.488903  157  129  128
-1.028913 18.428166 -27.506108  130  101  102
-1.028566 18.260316 -27.526907  183  155  157
-1.028311 18.179710 -27.542219  176  147  150
-1.028119 18.096361 -27.553724  101  76  88
-1.027728 18.021204 -27.577211  149  124  135
-1.016723 12.296387 -28.237480  80  58  62
-1.016723 12.202744 -28.237480  78  56  60
-1.016723 12.109102 -28.237480  72  51  54
-1.016723 12.015459 -28.237480  56  37  36
-1.016723 11.921817 -28.237480  42  23  23
-1.043833 5.180014 -26.610895  88  44  76
-1.043833 5.003573 -26.610895  228  196  220
-1.043833 4.827132 -26.610895  213  202  216
-1.043833 4.738912 -26.610895  180  175  180
-1.043833 4.650691 -26.610895  151  146  151
-1.043833 4.562471 -26.610895  160  155  162
-1.046264 1.812563 -26.465040  189  188  198
-1.046264 1.286157 -26.465040  156  151  158
-1.013110 -5.436726 -28.454265  145  76  25
-1.013110 -5.531091 -28.454265  168  99  48
-1.009248 -8.708475 -28.685984  141  65  12
-1.009248 -8.803613 -28.685984  175  99  46
-1.009248 -8.993888 -28.685984  163  125  81
-1.009171 -9.661269 -28.690612  86  129  1
-1.009128 -9.757221 -28.693188  108  151  23
-1.009085 -11.280733 -28.695744  77  122  0
-1.009085 -11.375903 -28.695744  93  137  1
-1.005468 -13.469256 -28.912803  165  164  184
-1.005468 -13.565150 -28.912803  148  157  167
-1.005468 -13.661043 -28.912803  115  124  134
-1.005468 -13.756937 -28.912803  69  90  85
-1.005468 -13.852830 -28.912803  51  72  66
-1.005468 -14.236404 -28.912803  67  96  72
-1.005468 -14.332298 -28.912803  109  130  113
-1.118131 18.716828 -27.655061  160  134  128
-1.118035 18.538522 -27.662272  136  109  106
-1.117822 18.274467 -27.678234  115  88  86
-1.117624 18.101188 -27.693130  134  111  128
-1.117555 18.012864 -27.698232  185  161  173
-1.117468 17.925489 -27.704774  187  162  175
-1.111548 12.441381 -28.148758  47  25  33
-1.111548 11.974647 -28.148758  98  75  77
-1.131773 5.008262 -26.631891  222  188  207
-1.131773 4.831681 -26.631891  227  215  222
-1.131773 4.743391 -26.631891  180  175  179
-1.131773 4.566810 -26.631891  148  143  150
-1.131773 4.478519 -26.631891  174  169  175
-1.133998 1.286157 -26.465040  150  145  151
-1.133998 1.198423 -26.465040  180  175  182
-1.106980 -4.781241 -28.491368  173  170  181
-1.106980 -4.875730 -28.491368  151  122  135
-1.106980 -5.442662 -28.491368  143  66  9
-1.106980 -5.537151 -28.491368  164  87  30
-1.104558 -8.229458 -28.673011  132  86  90
-1.104558 -8.800023 -28.673011  174  92  28
-1.104558 -8.990212 -28.673011  177  129  80
-1.104212 -9.759014 -28.698972  103  137  23
-1.100775 -13.680525 -28.956748  159  165  190
-1.100775 -13.776566 -28.956748  147  163  188
-1.100775 -13.872606 -28.956748  128  144  169
-1.100775 -13.968646 -28.956748  100  126  135
-1.100775 -14.064686 -28.956748  87  113  121
-1.100775 -14.160726 -28.956748  58  87  74
-1.209085 18.770120 -27.729770  168  142  136
-1.208981 18.409623 -27.740203  126  99  97
-1.208808 18.053517 -27.757436  182  157  170
-1.208124 17.177791 -27.825850  183  158  157
-1.207501 15.553893 -27.888156  189  160  159
-1.206942 15.494434 -27.944122  183  154  153
-1.206864 15.406340 -27.951913  179  151  149
-1.206215 12.378461 -28.016758  49  28  36
-1.206223 12.192286 -28.015988  44  22  30
-1.206246 11.633828 -28.013694  83  63  61
-1.206246 11.540932 -28.013694  43  26  25
-1.206246 11.448035 -28.013694  42  25  24
-1.206246 11.355139 -28.013694  40  26  30
-1.206246 11.262242 -28.013694  40  26  30
-1.206246 11.169346 -28.013694  47  35  43
-1.206246 10.797760 -28.013694  92  71  85
-1.218998 5.032069 -26.738487  205  172  191
-1.218998 4.854777 -26.738487  228  216  224
-1.218998 4.766131 -26.738487  192  187  192
-1.218998 4.677485 -26.738487  149  144  149
-1.221732 1.198423 -26.465040  176  171  178
-1.201001 -4.787633 -28.538142  181  179  189
-1.201001 -4.882278 -28.538142  163  133  146
-1.201001 -5.544791 -28.538142  163  86  29
-1.201001 -5.639435 -28.538142  178  119  77
-1.201001 -5.734080 -28.538142  209  149  107
-1.201001 -5.828725 -28.538142  203  168  148
-1.200059 -7.459361 -28.632389  182  178  173
-1.200059 -7.554320 -28.632389  182  176  182
-1.200059 -7.649279 -28.632389  182  176  182
-1.200059 -7.744237 -28.632389  185  172  195
-1.200059 -7.839196 -28.632389  173  159  182
-1.199834 -7.939711 -28.654914  176  147  172
-1.199824 -8.034978 -28.655847  157  128  152
-1.199816 -8.130238 -28.656726  141  95  99
-1.199804 -8.225570 -28.657864  122  75  79
-1.199804 -8.700789 -28.657864  141  59  0
-1.199804 -8.890876 -28.657864  185  137  88
-1.199804 -8.985920 -28.657864  181  133  83
-1.199804 -9.080964 -28.657864  111  123  59
-1.199459 -9.852139 -28.692411  116  157  37
-1.199459 -10.708569 -28.692411  103  124  128
-1.199459 -11.374681 -28.692411  85  127  13
-1.196384 -13.603456 -28.999863  147  153  178
-1.196384 -13.699640 -28.999863  157  163  188
-1.196384 -14.276742 -28.999863  41  70  57
-1.301035 18.770120 -27.729770  162  137  127
-1.300966 18.409623 -27.740203  169  143  137
-1.300936 18.320695 -27.744591  150  125  118
-1.300873 18.143304 -27.754168  151  130  149
-1.300851 18.053517 -27.757436  187  164  180
-1.299921 17.316730 -27.896919  176  154  157
-1.299690 15.579596 -27.931476  172  144  144
-1.299690 15.394351 -27.931476  172  145  140
-1.299521 12.442671 -27.956973  60  38  48
-1.299521 12.349963 -27.956973  57  35  45
-1.299521 12.164548 -27.956973  55  32  42
-1.299521 11.979133 -27.956973  173  149  156
-1.299521 11.330181 -27.956973  88  72  78
-1.299521 11.237474 -27.956973  88  73  79
-1.307442 5.038830 -26.768760  201  167  181
-1.307442 4.861336 -26.768760  237  224  226
-1.307442 4.772590 -26.768760  201  196  199
-1.307442 4.683843 -26.768760  153  148  151
-1.307442 4.506349 -26.768760  172  167  172
-1.309698 1.283262 -26.430304  140  135  142
-1.309698 1.195644 -26.430304  169  164  170
-1.295259 -4.890405 -28.596192  165  137  152
-1.295190 -5.555976 -28.606623  158  58  0
-1.295180 -5.651093 -28.608088  158  75  15
-1.295170 -5.746213 -28.609512  181  99  38
-1.295161 -5.841339 -28.610917  179  122  84
-1.295142 -5.936730 -28.613766  196  139  101
-1.295152 -6.031359 -28.612282  193  156  138
-1.295158 -6.126087 -28.611387  196  159  141
-1.295165 -6.220768 -28.610274  187  159  152
-1.295142 -6.316314 -28.613753  188  160  153
-1.295129 -6.411591 -28.615721  190  161  157
-1.295115 -6.506896 -28.617763  192  163  158
-1.295107 -6.602051 -28.618986  197  162  157
-1.295101 -6.697156 -28.619926  197  163  157
-1.295101 -6.792073 -28.619926  199  161  153
-1.295101 -6.886991 -28.619926  197  158  151
-1.295101 -6.981908 -28.619926  190  157  151
-1.295101 -7.076825 -28.619926  189  156  150
-1.295101 -7.171743 -28.619926  188  156  134
-1.295101 -7.266660 -28.619926  184  152  130
-1.295101 -7.361577 -28.619926  180  148  114
-1.295101 -7.456494 -28.619926  172  140  106
-1.295101 -7.551412 -28.619926  166  131  104
-1.295101 -7.646329 -28.619926  161  127  99
-1.295101 -7.741246 -28.619926  148  105  91
-1.295101 -7.836164 -28.619926  134  92  77
-1.295101 -7.931081 -28.619926  139  81  63
-1.295101 -8.025998 -28.619926  130  72  54
-1.294879 -8.889588 -28.653262  185  131  75
-1.294879 -8.984616 -28.653262  186  132  76
-1.294879 -9.079645 -28.653262  118  128  62
-1.294798 -9.748586 -28.665335  92  118  15
-1.294798 -9.843655 -28.665335  108  141  36
-1.294798 -9.938724 -28.665335  130  164  59
-1.294798 -10.033792 -28.665335  169  169  105
-1.294798 -10.128861 -28.665335  175  175  112
-1.294798 -10.223929 -28.665335  171  172  151
-1.294798 -10.318998 -28.665335  166  166  145
-1.294798 -10.604204 -28.665335  109  132  114
-1.294798 -10.699273 -28.665335  84  107  89
-1.294798 -11.364753 -28.665335  83  127  9
-1.292357 -13.809937 -29.031461  128  150  144
-1.292357 -13.906226 -29.031461  109  130  125
-1.292357 -14.002515 -29.031461  72  104  82
-1.292357 -14.098804 -29.031461  42  74  52
-1.292357 -14.195093 -29.031461  18  51  18
-1.292357 -14.291382 -29.031461  29  63  30
-1.292357 -14.387672 -29.031461  76  104  69
-1.292357 -14.483961 -29.031461  119  147  112
-1.392985 18.770120 -27.729770  157  132  122
-1.392951 18.409623 -27.740203  104  78  71
-1.392936 18.320695 -27.744591  109  83  76
-1.392926 18.230851 -27.747699  142  121  141
-1.392904 18.143304 -27.754168  170  149  168
-1.392893 18.053517 -27.757436  188  165  180
-1.392428 17.316730 -27.896919  165  143  146
-1.392411 17.135040 -27.902034  137  113  114
-1.392243 15.592113 -27.952573  161  133  133
-1.392243 15.406728 -27.952573  151  123  118
-1.392243 15.314035 -27.952573  176  149  144
-1.392206 12.538552 -27.963540  116  86  83
-1.392206 12.445823 -27.963540  60  38  48
-1.392206 12.353094 -27.963540  43  22  32
-1.392206 12.260364 -27.963540  43  20  29
-1.392206 12.167635 -27.963540  64  41  51
-1.392206 12.074906 -27.963540  112  88  95
-1.392228 11.979133 -27.956973  129  105  112
-1.392228 11.886426 -27.956973  99  75  78
-1.392228 11.793718 -27.956973  85  60  63
-1.392228 11.701011 -27.956973  87  65  64
-1.396147 5.130420 -26.781303  72  38  52
-1.396147 5.041631 -26.781303  188  154  168
-1.396147 4.952843 -26.781303  241  228  230
-1.396147 4.864054 -26.781303  239  226  228
-1.396147 4.775265 -26.781303  198  194  197
-1.396147 4.508900 -26.781303  169  165  169
-1.397371 1.281900 -26.413960  144  139  145
-1.397371 1.194336 -26.413960  163  158  164
-1.390042 -4.892725 -28.612763  178  149  164
-1.390124 -5.742578 -28.588129  145  63  2
-1.390130 -5.837058 -28.586221  125  68  30
-1.390129 -5.931965 -28.586797  127  70  32
-1.390129 -6.026772 -28.586797  112  75  57
-1.390129 -6.121579 -28.586797  109  72  54
-1.390129 -6.216386 -28.586797  108  80  73
-1.390129 -6.311192 -28.586797  110  82  75
-1.390090 -6.408231 -28.598340  112  83  79
-1.390081 -6.503605 -28.601031  112  83  79
-1.390076 -6.598754 -28.602501  114  80  74
-1.390071 -6.693912 -28.603969  111  76  70
-1.390067 -6.789038 -28.605239  108  69  62
-1.390062 -6.884211 -28.606687  103  65  57
-1.390058 -6.979327 -28.607829  104  71  65
-1.390054 -7.074507 -28.609228  102  69  63
-1.390049 -7.169696 -28.610623  101  68  47
-1.390044 -7.264938 -28.612218  100  67  45
-1.390038 -7.360236 -28.614011  101  69  35
-1.390033 -7.455474 -28.615488  103  71  36
-1.390028 -7.550706 -28.616902  105  71  43
-1.390028 -7.645613 -28.616902  106  71  44
-1.389980 -8.693524 -28.631285  147  61  0
-1.389977 -8.788708 -28.632111  172  86  12
-1.389976 -8.883756 -28.632434  183  129  73
-1.389974 -9.073904 -28.633236  119  128  62
-1.389967 -9.834277 -28.635406  83  117  12
-1.389967 -9.929246 -28.635406  97  130  25
-1.389967 -10.024215 -28.635406  136  136  72
-1.389967 -10.119184 -28.635406  151  151  87
-1.389967 -10.214153 -28.635406  155  155  135
-1.389967 -10.309122 -28.635406  151  152  131
-1.389967 -10.499059 -28.635406  125  132  142
-1.389967 -10.594028 -28.635406  98  121  103
-1.389967 -10.688997 -28.635406  79  102  83
-1.389967 -11.448748 -28.635406  97  140  23
-1.388606 -13.622668 -29.043526  152  161  167
-1.388606 -13.718997 -29.043526  128  137  143
-1.388606 -13.815326 -29.043526  62  83  78
-1.388606 -13.911656 -29.043526  16  37  32
-1.388606 -14.104314 -29.043526  47  78  57
-1.388606 -14.200643 -29.043526  89  122  89
-1.388606 -14.296973 -29.043526  125  158  125
-1.388606 -14.393302 -29.043526  147  175  140
-1.484935 18.770120 -27.729770  162  139  129
-1.484935 18.498859 -27.736294  184  164  158
-1.484935 18.409623 -27.740203  177  160  158
-1.484935 18.320695 -27.744591  181  164  162
-1.484935 18.230851 -27.747699  190  171  169
-1.484935 18.143304 -27.754168  185  166  164
-1.484935 17.316730 -27.896919  173  148  142
-1.484935 17.135040 -27.902034  150  128  129
-1.484935 17.044196 -27.904632  182  162  170
-1.484935 15.596433 -27.959854  161  143  140
-1.484935 15.411189 -27.960178  159  126  120
-1.484935 15.318521 -27.960263  199  166  161
-1.484935 12.815050 -27.960113  179  161  159
-1.484935 12.722332 -27.960113  182  163  161
-1.484935 12.629614 -27.960113  162  145  141
-1.484935 12.536896 -27.960113  129  112  109
-1.484935 12.444178 -27.960113  90  73  93
-1.484935 12.351460 -27.960113  93  76  96
-1.484935 12.258742 -27.960113  82  64  81
-1.484935 12.073306 -27.960113  89  69  83
-1.484935 11.980588 -27.960113  98  78  93
-1.484935 5.147832 -26.858121  81  50  58
-1.484935 5.058787 -26.858121  172  142  149
-1.484935 4.969742 -26.858121  255  228  228
-1.484935 4.880698 -26.858121  255  226  226
-1.484935 4.791653 -26.858121  202  199  216
-1.484935 4.702609 -26.858121  155  152  169
-1.484935 4.524519 -26.858121  164  164  164
-1.484935 1.193045 -26.397817  162  161  165
-1.484935 -8.687949 -28.610890  146  62  0
-1.484935 -8.783019 -28.611549  166  82  17
-1.484935 -8.877980 -28.611806  177  124  81
-1.484935 -9.067919 -28.612358  132  139  75
-1.484935 -10.017133 -28.613276  76  118  12
-1.484935 -10.112028 -28.613276  78  120  14
-1.484935 -10.206924 -28.613276  81  123  9
-1.484935 -10.301819 -28.613276  82  124  9
-1.484935 -10.491609 -28.613276  75  118  0
-1.484935 -11.474163 -28.963726  82  123  0
-1.484935 -11.570226 -28.963726  97  138  0
-1.484935 -13.597868 -28.987164  148  154  168
-1.484935 -13.694010 -28.987164  127  133  146
-1.484935 -13.790151 -28.987164  94  112  122
-1.484935 -13.886293 -28.987164  85  102  112
-1.484935 -13.982434 -28.987164  112  141  140
-1.484935 -14.174717 -28.987164  115  146  130
-1.484935 -14.270858 -28.987164  100  132  116
-1.484935 -14.367000 -28.987164  110  136  106
-1.576978 18.053517 -27.757436  183  161  162
-1.577001 17.966275 -27.764461  183  161  162
-1.577017 17.877379 -27.769122  186  160  163
-1.577443 17.316730 -27.896919  176  151  145
-1.577460 17.135040 -27.902034  148  126  127
-1.577468 17.044196 -27.904632  182  161  170
-1.577652 15.596324 -27.959670  161  144  141
-1.577652 15.410891 -27.959670  165  132  126
-1.577524 12.981037 -27.921216  189  169  167
-1.577524 12.888449 -27.921216  177  158  156
-1.577524 12.795860 -27.921216  155  137  134
-1.577524 12.703272 -27.921216  135  117  114
-1.577524 12.610684 -27.921216  114  97  94
-1.576958 12.436021 -27.751406  96  79  76
-1.576827 12.049555 -27.712307  67  48  65
-1.576797 11.953384 -27.703136  84  65  79
-1.576764 11.857019 -27.693417  99  80  94
-1.576722 11.759366 -27.680755  83  65  80
-1.574168 5.249827 -26.914428  98  67  85
-1.574168 5.160595 -26.914428  77  47  54
-1.574168 5.071362 -26.914428  155  124  132
-1.574168 4.982130 -26.914428  244  214  215
-1.574168 4.803665 -26.914428  205  202  219
-1.574168 4.714433 -26.914428  156  153  170
-1.574168 4.535969 -26.914428  159  159  159
-1.572446 1.193044 -26.397806  163  162  166
-1.579548 -4.880929 -28.528509  178  170  190
-1.579546 -4.975477 -28.528059  138  130  150
-1.579546 -5.070083 -28.528022  128  82  70
-1.579755 -8.682369 -28.590475  140  55  0
-1.579755 -8.777188 -28.590475  162  77  12
-1.579755 -9.061646 -28.590475  143  149  86
-1.579755 -9.156465 -28.590475  112  118  54
-1.580808 -11.357344 -28.906600  77  121  0
-1.580831 -11.455680 -28.913318  83  124  0
-1.580902 -13.670787 -28.934781  160  166  180
-1.580902 -13.766754 -28.934781  147  164  175
-1.580902 -13.862720 -28.934781  149  166  176
-1.580902 -13.958687 -28.934781  131  159  158
-1.580902 -14.054654 -28.934781  84  112  111
-1.580902 -14.246588 -28.934781  15  47  30
-1.580902 -14.342554 -28.934781  28  54  24
-1.580902 -14.438521 -28.934781  39  65  35
-1.580902 -14.534488 -28.934781  94  113  75
-1.668836 18.770120 -27.729770  166  144  133
-1.668864 18.589241 -27.734044  187  168  160
-1.668879 18.498859 -27.736294  187  168  160
-1.668905 18.409623 -27.740203  179  164  160
-1.668934 18.320695 -27.744591  181  166  162
-1.668998 18.143304 -27.754168  175  160  160
-1.669020 18.053517 -27.757436  164  145  148
-1.669067 17.966275 -27.764461  168  149  152
-1.669098 17.877379 -27.769122  186  163  168
-1.669950 17.316730 -27.896919  173  152  147
-1.669984 17.135040 -27.902034  142  123  125
-1.670001 17.044196 -27.904632  178  161  170
-1.670350 16.429052 -27.956911  184  159  158
-1.670340 16.335381 -27.955357  182  157  154
-1.670340 16.242679 -27.955357  184  160  157
-1.670340 15.593765 -27.955357  164  147  148
-1.669550 13.215792 -27.836884  173  155  163
-1.669550 13.123485 -27.836884  147  129  148
-1.669550 13.031178 -27.836884  125  108  127
-1.669550 12.938871 -27.836884  103  85  114
-1.669104 12.813357 -27.770024  86  69  97
-1.669063 12.718255 -27.763907  71  54  89
-1.669063 12.626191 -27.763907  73  56  90
-1.669063 12.165871 -27.763907  95  75  100
-1.668528 12.036050 -27.683571  67  46  71
-1.668471 11.940306 -27.675113  91  68  91
-1.668327 11.746797 -27.653432  109  88  111
-1.668327 11.471710 -27.653432  75  56  83
-1.668327 11.380015 -27.653432  93  76  105
-1.663933 5.447207 -26.994351  92  61  89
-1.663933 5.357708 -26.994351  93  63  81
-1.663933 5.268209 -26.994351  100  69  88
-1.663933 4.999713 -26.994351  241  212  214
-1.663933 4.820716 -26.994351  213  210  227
-1.663933 4.552220 -26.994351  156  156  156
-1.660409 1.198477 -26.465719  154  153  156
-1.674235 -4.882500 -28.539728  182  177  198
-1.674265 -5.072448 -28.544150  140  101  93
-1.675015 -8.700451 -28.656628  143  54  0
-1.675030 -8.796128 -28.658933  164  75  17
-1.675019 -9.080810 -28.657325  142  144  100
-1.676465 -11.441356 -28.874253  84  120  6
-1.676588 -13.843756 -28.892639  143  156  170
-1.676588 -13.939583 -28.892639  115  139  144
-1.676588 -14.035409 -28.892639  70  94  98
-1.676588 -14.131235 -28.892639  45  72  64
-1.676588 -14.227062 -28.892639  48  75  67
-1.676588 -14.322888 -28.892639  63  85  65
-1.676588 -14.418714 -28.892639  62  84  64
-1.676588 -14.514541 -28.892639  77  92  66
-1.760786 18.770120 -27.729770  161  139  128
-1.760828 18.589241 -27.734044  184  166  158
-1.760851 18.498859 -27.736294  176  157  149
-1.760890 18.409623 -27.740203  168  153  149
-1.760934 18.320695 -27.744591  182  166  162
-1.761030 18.143304 -27.754168  165  149  149
-1.761062 18.053517 -27.757436  132  114  117
-1.761133 17.966275 -27.764461  139  120  124
-1.761179 17.877379 -27.769122  175  153  157
-1.761335 17.703733 -27.784741  187  162  163
-1.761424 17.617534 -27.793598  174  149  150
-1.761510 17.531105 -27.802199  177  153  148
-1.761564 17.442480 -27.807575  190  166  161
-1.762457 17.316730 -27.896919  167  146  141
-1.763059 16.892702 -27.957088  185  162  165
-1.763084 16.801563 -27.959552  179  156  159
-1.762807 16.691355 -27.931934  184  160  162
-1.762765 16.503454 -27.927700  191  166  165
-1.762765 16.410844 -27.927700  175  151  150
-1.762708 16.222132 -27.922037  185  161  158
-1.761519 13.475138 -27.803085  122  104  104
-1.761519 13.382944 -27.803085  100  81  82
-1.761519 13.290749 -27.803085  84  66  74
-1.761519 13.198555 -27.803085  69  51  59
-1.761519 13.106360 -27.803085  64  47  65
-1.761020 12.989036 -27.753159  52  35  54
-1.760957 12.893863 -27.746869  46  29  58
-1.760865 12.797310 -27.737715  53  36  65
-1.760709 12.605687 -27.722063  78  62  96
-1.760246 12.124144 -27.675752  96  75  100
-1.760170 12.028813 -27.668175  66  45  70
-1.760092 11.933437 -27.660392  86  64  87
-1.759745 11.459235 -27.625708  70  51  77
-1.759651 11.363431 -27.616304  86  68  98
-1.754097 5.283521 -27.060922  76  45  64
-1.754097 5.193800 -27.060922  72  42  51
-1.754097 5.014359 -27.060922  239  209  211
-1.754097 4.834918 -27.060922  218  216  233
-1.754097 4.745197 -27.060922  168  165  182
-1.754097 4.565756 -27.060922  155  155  155
-1.748145 1.198477 -26.465719  154  153  157
-1.769756 -8.692288 -28.626764  143  53  0
-1.769908 -9.076409 -28.641975  151  153  109
-1.771515 -11.415122 -28.802705  82  118  4
-1.771727 -13.812840 -28.823935  140  153  167
-1.771727 -13.908437 -28.823935  110  134  138
-1.771727 -14.004034 -28.823935  83  107  112
-1.771727 -14.099632 -28.823935  88  116  107
-1.771727 -14.195229 -28.823935  89  116  108
-1.771727 -14.290826 -28.823935  108  130  110
-1.771727 -14.482021 -28.823935  97  112  86
-1.771727 -14.673216 -28.823935  140  149  146
-1.852793 18.589241 -27.734044  175  158  148
-1.852823 18.498859 -27.736294  144  126  117
-1.852875 18.409623 -27.740203  130  116  109
-1.852933 18.320695 -27.744591  157  143  136
-1.853061 18.143304 -27.754168  169  157  158
-1.853105 18.053517 -27.757436  124  108  113
-1.853198 17.966275 -27.764461  135  119  124
-1.853261 17.877379 -27.769122  183  163  170
-1.853469 17.703733 -27.784741  174  153  155
-1.853702 17.531105 -27.802199  158  137  133
-1.853773 17.442480 -27.807575  187  166  162
-1.854964 17.316730 -27.896919  156  138  133
-1.855033 17.135040 -27.902034  141  126  128
-1.855067 17.044196 -27.904632  181  167  176
-1.855121 16.954246 -27.908647  186  172  181
-1.855767 16.892702 -27.957088  182  160  170
-1.855800 16.801563 -27.959552  172  150  160
-1.855431 16.691355 -27.931934  188  166  169
-1.854759 16.474527 -27.881541  180  158  153
-1.854721 16.380297 -27.878694  150  127  123
-1.854677 16.285795 -27.875379  139  117  105
-1.854677 16.193360 -27.875379  166  144  133
-1.854677 16.008489 -27.875379  185  164  153
-1.854677 15.916053 -27.875379  175  155  149
-1.854677 15.823618 -27.875379  173  153  148
-1.854677 15.731183 -27.875379  186  167  170
-1.854677 15.546312 -27.875379  157  139  147
-1.853771 14.399493 -27.807439  186  169  157
-1.853771 14.307284 -27.807439  196  178  167
-1.853771 14.215075 -27.807439  187  168  168
-1.853771 14.122866 -27.807439  180  161  162
-1.853448 14.017573 -27.783211  169  149  159
-1.853422 13.924388 -27.781242  159  139  149
-1.853393 13.831111 -27.779076  116  102  129
-1.853346 13.737111 -27.775517  75  60  87
-1.853215 13.639832 -27.765689  73  59  85
-1.853146 13.545074 -27.760552  87  73  99
-1.853056 13.449485 -27.753752  74  61  87
-1.852962 13.353822 -27.746719  62  49  76
-1.852866 13.258125 -27.739531  60  48  81
-1.852263 12.592082 -27.694296  78  67  123
-1.852189 12.497554 -27.688757  95  84  142
-1.851644 11.927600 -27.647884  88  64  96
-1.851367 11.643074 -27.627094  95  71  103
-1.851367 11.551471 -27.627106  92  70  105
-1.851342 11.459026 -27.625244  89  68  102
-1.851214 11.363134 -27.615640  101  80  117
-1.844423 5.473708 -27.106329  74  43  71
-1.844423 5.293964 -27.106329  60  30  50
-1.844423 5.204092 -27.106329  51  22  34
-1.844423 5.024348 -27.106329  220  192  199
-1.844423 4.844604 -27.106329  219  216  233
-1.844423 4.754732 -27.106329  171  168  185
-1.844423 4.574988 -27.106329  151  151  151
-1.864487 -9.067563 -28.611118  158  156  135
-1.864487 -9.162451 -28.611118  122  120  98
-1.864487 -11.344874 -28.611118  82  114  15
-1.867041 -13.803256 -28.802639  149  158  173
-1.867041 -13.898783 -28.802639  125  145  152
-1.867041 -13.994309 -28.802639  84  103  111
-1.867041 -14.089835 -28.802639  87  111  107
-1.867041 -14.185362 -28.802639  93  117  113
-1.867041 -14.280888 -28.802639  120  139  125
-1.867041 -14.376414 -28.802639  125  144  130
-1.867041 -14.662993 -28.802639  142  151  146
-1.944757 18.589241 -27.734044  176  159  149
-1.944795 18.498859 -27.736294  137  119  110
-1.944860 18.409623 -27.740203  127  113  106
-1.944933 18.320695 -27.744591  168  154  147
-1.945093 18.143304 -27.754168  166  153  155
-1.945147 18.053517 -27.757436  112  96  102
-1.945264 17.966275 -27.764461  127  111  116
-1.945342 17.877379 -27.769122  183  163  170
-1.945602 17.703733 -27.784741  161  139  141
-1.945893 17.531105 -27.802199  145  124  120
-1.945983 17.442480 -27.807575  184  164  160
-1.947472 17.316730 -27.896919  151  132  128
-1.947557 17.135040 -27.902034  146  131  133
-1.947600 17.044196 -27.904632  186  172  182
-1.947667 16.954246 -27.908647  187  173  182
-1.948475 16.892702 -27.957088  147  125  134
-1.948055 16.691355 -27.931934  171  148  152
-1.946504 16.447766 -27.838836  174  152  147
-1.946459 16.353774 -27.836143  143  121  116
-1.946406 16.259496 -27.832960  139  117  106
-1.946406 16.167201 -27.832960  178  156  145
-1.946406 15.982613 -27.832960  180  159  148
-1.946406 15.798025 -27.832960  162  142  136
-1.946406 15.705731 -27.832960  187  168  171
-1.946406 15.521143 -27.832960  161  143  151
-1.945502 14.659957 -27.778748  170  152  133
-1.945467 14.566649 -27.776615  135  118  99
-1.945393 14.472080 -27.772191  147  130  111
-1.945354 14.378697 -27.769857  167  149  138
-1.945314 14.285298 -27.767465  161  144  132
-1.945274 14.191917 -27.765077  134  115  116
-1.945204 14.097545 -27.760837  116  97  98
-1.945104 14.002245 -27.754826  100  80  90
-1.945073 13.909225 -27.752987  86  65  76
-1.945039 13.816116 -27.750959  62  47  74
-1.944987 13.722447 -27.747849  41  26  53
-1.944786 13.532112 -27.735783  82  69  94
-1.944213 12.687409 -27.701382  52  40  97
-1.944213 12.595553 -27.701382  75  64  120
-1.944213 12.503698 -27.701382  95  84  142
-1.934751 5.210289 -27.133666  60  31  43
-1.934751 5.030362 -27.133666  210  181  188
-1.934751 4.850436 -27.133666  223  220  237
-1.934751 4.580547 -27.133666  150  150  150
-1.934751 4.490584 -27.133666  174  175  170
-1.929272 1.225616 -26.804962  144  143  146
-1.929272 1.136749 -26.804962  168  167  171
-1.958221 -4.977460 -28.541894  180  181  201
-1.958259 -5.072448 -28.544150  174  148  147
-1.958294 -5.167429 -28.546259  130  104  103
-1.958780 -8.583486 -28.575423  155  47  12
-1.958780 -8.678255 -28.575423  148  60  0
-1.958780 -9.057331 -28.575423  159  157  135
-1.959375 -11.344874 -28.611118  84  116  18
-1.962629 -13.804929 -28.806357  146  154  170
-1.962629 -13.900468 -28.806357  111  130  138
-1.962629 -13.996007 -28.806357  67  87  94
-1.962629 -14.091546 -28.806357  55  78  74
-1.962629 -14.187084 -28.806357  55  79  75
-1.962629 -14.282623 -28.806357  94  114  100
-1.962629 -14.378162 -28.806357  121  140  126
-1.962629 -14.664778 -28.806357  145  154  149
-2.036636 18.770120 -27.729770  173  152  142
-2.036721 18.589241 -27.734044  173  155  145
-2.036766 18.498859 -27.736294  134  117  107
-2.036845 18.409623 -27.740203  128  115  106
-2.036932 18.320695 -27.744591  176  162  153
-2.037124 18.143304 -27.754168  173  159  162
-2.037189 18.053517 -27.757436  115  98  104
-2.037330 17.966275 -27.764461  131  114  120
-2.037423 17.877379 -27.769122  190  170  176
-2.037735 17.703733 -27.784741  170  147  149
-2.038085 17.531105 -27.802199  146  124  120
-2.038192 17.442480 -27.807575  186  164  160
-2.039934 17.407743 -27.894655  190  172  166
-2.039979 17.316730 -27.896919  154  135  130
-2.040081 17.135040 -27.902034  149  133  133
-2.040133 17.044196 -27.904632  187  172  180
-2.040214 16.954246 -27.908647  189  174  182
-2.041182 16.892702 -27.957088  137  115  129
-2.040679 16.691355 -27.931934  164  143  148
-2.037930 16.419949 -27.794447  170  149  141
-2.037885 16.326389 -27.792210  138  117  109
-2.037838 16.232792 -27.789891  138  117  100
-2.037791 16.139174 -27.787510  180  159  142
-2.037722 15.952801 -27.784088  166  146  129
-2.037648 15.766298 -27.780374  143  123  115
-2.037614 15.673168 -27.778688  180  160  165
-2.037571 15.579773 -27.776539  189  168  173
-2.037340 15.020477 -27.764991  158  135  160
-2.037314 14.927664 -27.763691  153  131  152
-2.037226 14.833070 -27.759251  162  140  161
-2.037208 14.740526 -27.758375  159  139  156
-2.037126 14.646157 -27.754251  132  111  128
-2.037099 14.553372 -27.752906  93  73  93
-2.037044 14.459813 -27.750154  93  73  93
-2.037016 14.367020 -27.748754  99  78  109
-2.036987 14.274215 -27.747315  83  62  93
-2.036987 13.538147 -27.747315  58  46  105
-2.036333 12.693946 -27.714634  51  45  94
-2.036333 12.602047 -27.714634  74  69  117
-2.036333 12.142549 -27.714634  95  71  111
-2.036333 11.315452 -27.714634  114  91  131
-2.026097 5.225968 -27.202842  77  50  69
-2.026097 5.135775 -27.202842  133  106  125
-2.026097 5.045581 -27.202842  202  175  191
-2.026097 4.955387 -27.202842  254  227  243
-2.026097 4.865194 -27.202842  229  226  243
-2.026097 4.775000 -27.202842  184  181  198
-2.026097 4.504419 -27.202842  172  173  167
-2.017569 1.223335 -26.776443  144  144  147
-2.017569 1.134563 -26.776443  170  169  173
-2.052878 -4.977460 -28.541894  175  180  199
-2.052924 -5.072448 -28.544150  174  161  166
-2.052966 -5.167429 -28.546259  132  118  123
-2.052966 -5.262101 -28.546259  115  77  57
-2.053547 -8.583452 -28.575297  147  45  0
-2.053547 -8.678220 -28.575297  144  68  0
-2.053547 -8.867758 -28.575297  193  154  97
-2.053547 -9.057295 -28.575297  167  164  158
-2.053547 -9.152063 -28.575297  147  144  138
-2.053547 -9.246832 -28.575297  89  115  90
-2.054263 -11.344874 -28.611118  88  124  10
-2.060869 -13.865697 -28.941396  146  153  166
-2.060869 -13.961686 -28.941396  141  160  161
-2.060869 -14.057675 -28.941396  109  128  130
-2.060869 -14.249652 -28.941396  30  55  44
-2.060869 -14.345641 -28.941396  53  76  54
-2.060869 -14.441630 -28.941396  100  122  100
-2.060869 -14.537619 -28.941396  110  128  100
-2.060869 -14.633608 -28.941396  115  133  105
-2.060869 -14.729597 -28.941396  145  154  148
-2.128830 18.409623 -27.740203  130  116  107
-2.128932 18.320695 -27.744591  178  164  155
-2.129004 18.230851 -27.747699  188  174  177
-2.129155 18.143304 -27.754168  176  163  165
-2.129396 17.966275 -27.764461  134  117  123
-2.129504 17.877379 -27.769122  192  171  178
-2.130276 17.531105 -27.802199  153  131  127
-2.130402 17.442480 -27.807575  190  168  163
-2.132433 17.407743 -27.894655  193  174  169
-2.132486 17.316730 -27.896919  160  141  136
-2.132606 17.135040 -27.902034  147  131  132
-2.132666 17.044196 -27.904632  183  169  176
-2.132760 16.954246 -27.908647  188  174  181
-2.133890 16.892702 -27.957088  145  123  137
-2.133303 16.691355 -27.931934  168  146  151
-2.129377 16.400647 -27.763647  170  149  141
-2.129360 16.308138 -27.762931  136  115  107
-2.129345 16.215687 -27.762301  136  115  99
-2.129331 16.123259 -27.761703  178  157  140
-2.129313 15.938660 -27.760906  168  148  131
-2.129270 15.753448 -27.759076  144  124  116
-2.129242 15.660685 -27.757884  187  167  171
-2.129211 15.567837 -27.756536  194  173  178
-2.129107 15.013036 -27.752087  112  89  114
-2.129107 14.921011 -27.752087  97  75  95
-2.129107 14.828987 -27.752087  107  85  106
-2.129107 14.736962 -27.752087  108  87  104
-2.129107 14.644938 -27.752087  79  59  76
-2.129107 14.552913 -27.752087  57  37  56
-2.129107 12.712423 -27.752087  53  48  96
-2.128233 11.958749 -27.714634  95  69  106
-2.116303 5.226079 -27.203330  88  61  80
-2.116303 5.135884 -27.203330  124  97  116
-2.116303 4.955493 -27.203330  255  229  244
-2.116303 4.865298 -27.203330  231  228  245
-2.116303 4.775103 -27.203330  186  183  200
-2.116303 4.504517 -27.203330  166  167  162
-2.106342 1.223335 -26.776449  138  137  140
-2.106342 1.134563 -26.776449  163  163  166
-2.147588 -5.072448 -28.544150  190  176  181
-2.147638 -5.167429 -28.546259  152  139  143
-2.147638 -5.262101 -28.546259  132  93  74
-2.148315 -8.867758 -28.575297  203  164  107
-2.148315 -9.152063 -28.575297  150  147  141
-2.148315 -9.246832 -28.575297  107  133  108
-2.149151 -11.249986 -28.611118  76  116  3
-2.149151 -11.344874 -28.611118  92  128  14
-2.159087 -11.693630 -29.036959  151  160  111
-2.158959 -13.809937 -29.031461  156  163  176
-2.158959 -13.906226 -29.031461  151  158  171
-2.158959 -14.002515 -29.031461  142  161  163
-2.158959 -14.098805 -29.031461  144  163  165
-2.158959 -14.291383 -29.031461  108  132  121
-2.158959 -14.387672 -29.031461  117  140  118
-2.220561 18.678842 -27.730715  195  175  167
-2.220710 18.498859 -27.736294  125  109  99
-2.220814 18.409623 -27.740203  129  117  107
-2.221586 17.877379 -27.769122  186  164  170
-2.221749 17.789452 -27.775262  195  173  179
-2.222002 17.703733 -27.784741  161  137  138
-2.222468 17.531105 -27.802199  149  126  120
-2.222611 17.442480 -27.807575  189  166  159
-2.221440 16.400647 -27.763647  171  152  143
-2.221421 16.308138 -27.762931  137  119  110
-2.221170 16.210254 -27.753539  135  117  99
-2.221169 16.118210 -27.753515  182  163  145
-2.221169 16.026181 -27.753515  199  180  162
-2.221169 15.934152 -27.753515  167  148  130
-2.221169 15.658064 -27.753515  189  169  173
-2.221169 15.474006 -27.753515  158  137  151
-2.221169 15.105889 -27.753515  101  79  108
-2.221169 15.013859 -27.753515  72  51  80
-2.221169 14.553713 -27.753515  66  47  77
-2.221169 14.461684 -27.753515  82  63  93
-2.221169 14.369655 -27.753515  104  84  125
-2.221169 14.277625 -27.753515  99  79  120
-2.221169 14.185596 -27.753515  71  49  106
-2.221169 13.909508 -27.753515  80  57  125
-2.221169 13.817479 -27.753515  49  36  104
-2.220133 11.958749 -27.714634  94  69  105
-2.205764 7.292224 -27.175811  107  77  110
-2.207744 5.417372 -27.250054  73  49  79
-2.207744 4.965617 -27.250054  244  220  245
-2.207744 4.875266 -27.250054  236  234  251
-2.207744 4.513861 -27.250054  165  165  160
-2.242309 -5.167429 -28.546259  169  166  173
-2.242309 -5.262101 -28.546259  147  126  124
-2.242309 -5.356773 -28.546259  104  83  81
-2.242286 -8.480706 -28.545380  146  66  0
-2.242286 -8.764712 -28.545380  204  147  88
-2.242286 -8.859381 -28.545380  193  165  138
-2.242286 -9.143387 -28.545380  164  159  164
-2.242286 -9.238056 -28.545380  118  138  128
-2.242286 -9.332725 -28.545380  96  116  106
-2.244039 -11.155098 -28.611118  72  112  0
-2.244039 -11.249986 -28.611118  79  119  0
-2.255969 -11.701670 -29.058493  157  163  135
-2.256172 -13.729018 -29.066129  156  157  171
-2.256172 -14.114636 -29.066129  122  142  135
-2.256172 -14.211041 -29.066129  113  141  119
-2.312515 18.678842 -27.730715  199  179  171
-2.312615 18.589241 -27.734044  181  165  155
-2.312682 18.498859 -27.736294  161  145  135
-2.313199 15.750093 -27.753515  145  126  117
-2.313199 15.658064 -27.753515  192  172  176
-2.313199 15.566035 -27.753515  191  171  175
-2.313199 15.474006 -27.753515  140  119  133
-2.313199 14.645742 -27.753515  97  78  104
-2.313199 14.553713 -27.753515  76  58  88
-2.313199 14.461684 -27.753515  93  74  105
-2.313199 14.277625 -27.753515  108  88  130
-2.313199 14.185596 -27.753515  78  57  113
-2.313199 13.909508 -27.753515  89  66  134
-2.313199 13.817479 -27.753515  51  38  106
-2.313199 13.633421 -27.753515  40  28  90
-2.313199 13.541391 -27.753515  49  37  99
-2.313199 13.449362 -27.753515  51  41  96
-2.312032 12.326348 -27.714634  115  96  139
-2.312032 12.142549 -27.714634  112  90  129
-2.312032 11.958749 -27.714634  92  67  102
-2.312032 10.947853 -27.714634  109  81  115
-2.310587 9.551049 -27.666452  94  68  98
-2.298495 5.962857 -27.263389  99  73  110
-2.298495 5.872461 -27.263389  91  65  101
-2.298495 5.782065 -27.263389  76  51  86
-2.298495 5.691670 -27.263389  64  38  74
-2.298495 5.239692 -27.263389  50  27  53
-2.298495 5.149297 -27.263389  69  46  73
-2.298495 4.968506 -27.263389  244  221  245
-2.298495 4.878110 -27.263389  234  231  248
-2.298495 4.787715 -27.263389  190  187  204
-2.298495 4.697319 -27.263389  149  149  149
-2.298495 4.516528 -27.263389  164  165  160
-2.289418 1.148699 -26.960836  161  160  164
-2.336981 -5.167429 -28.546259  178  175  182
-2.336981 -5.262101 -28.546259  168  147  145
-2.336981 -5.356773 -28.546259  135  114  112
-2.336981 -5.451445 -28.546259  150  76  32
-2.336400 -8.381168 -28.526892  138  59  3
-2.336400 -8.475776 -28.526892  132  51  0
-2.336400 -8.664990 -28.526892  192  135  76
-2.336400 -8.759597 -28.526892  215  159  99
-2.336400 -9.232633 -28.526892  135  155  146
-2.336400 -9.327240 -28.526892  109  129  119
-2.351976 -11.600707 -29.046104  138  175  46
-2.352056 -13.721324 -29.048776  146  148  162
-2.352056 -13.817671 -29.048776  105  114  120
-2.352056 -13.914018 -29.048776  57  66  72
-2.352056 -14.010365 -29.048776  10  31  24
-2.352056 -14.106711 -29.048776  10  31  24
-2.405359 18.053517 -27.757436  134  120  124
-2.406269 17.703733 -27.784741  148  128  127
-2.406564 17.617534 -27.793598  139  119  118
-2.407030 17.442480 -27.807575  185  167  158
-2.409933 17.407743 -27.894655  183  168  157
-2.410008 17.316730 -27.896919  157  142  131
-2.410109 17.226210 -27.899961  143  131  125
-2.410179 17.135040 -27.902034  167  155  149
-2.410265 17.044196 -27.904632  189  179  180
-2.410399 16.954246 -27.908647  192  181  182
-2.412014 16.892702 -27.957088  138  127  132
-2.412096 16.801563 -27.959552  135  124  129
-2.411175 16.691355 -27.931934  178  166  165
-2.408143 16.541429 -27.840979  192  180  179
-2.405566 16.400647 -27.763647  165  153  143
-2.405542 16.308138 -27.762931  140  128  118
-2.405229 16.210254 -27.753539  145  131  116
-2.405228 15.381976 -27.753515  110  95  101
-2.405228 15.289947 -27.753515  117  99  127
-2.405228 15.197918 -27.753515  126  108  135
-2.405228 14.921830 -27.753515  91  74  109
-2.405228 14.829801 -27.753515  117  100  135
-2.405228 14.737772 -27.753515  123  106  144
-2.405228 14.645742 -27.753515  101  84  122
-2.405228 14.461684 -27.753515  95  78  120
-2.403932 12.326348 -27.714634  105  89  128
-2.403932 12.142549 -27.714634  103  84  120
-2.403932 11.958749 -27.714634  90  69  100
-2.403932 11.774950 -27.714634  113  92  120
-2.403932 11.315452 -27.714634  94  73  101
-2.403932 10.947853 -27.714634  109  82  108
-2.402326 9.734527 -27.666452  90  67  89
-2.402326 9.551049 -27.666452  81  57  83
-2.385971 7.562534 -27.175811  105  79  111
-2.385971 7.382327 -27.175811  111  86  118
-2.385971 7.292224 -27.175811  104  79  111
-2.386427 6.304732 -27.189491  109  86  124
-2.386427 6.214583 -27.189491  100  77  115
-2.386428 6.124440 -27.189516  87  65  102
-2.386428 6.034292 -27.189521  77  55  92
-2.386428 5.944142 -27.189518  70  49  84
-2.386428 5.853993 -27.189518  63  41  76
-2.386428 5.763842 -27.189511  52  32  64
-2.386428 5.222947 -27.189511  44  26  56
-2.386428 5.132798 -27.189511  55  37  67
-2.386428 4.952499 -27.189511  243  225  254
-2.386428 4.862350 -27.189511  235  232  249
-2.386428 4.772201 -27.189511  193  190  207
-2.386428 4.501753 -27.189511  162  163  158
-2.384744 1.162358 -27.138998  155  154  157
-2.431653 -5.262101 -28.546259  173  164  176
-2.431653 -5.356773 -28.546259  153  144  155
-2.431653 -5.451445 -28.546259  157  91  92
-2.431653 -5.546116 -28.546259  135  69  69
-2.431653 -5.640788 -28.546259  134  59  41
-2.432594 -8.298940 -28.574503  146  64  5
-2.432594 -8.393706 -28.574503  151  69  10
-2.432594 -8.488472 -28.574503  165  110  69
-2.432594 -8.583238 -28.574503  194  139  98
-2.432594 -8.678003 -28.574503  194  160  145
-2.432594 -9.246599 -28.574503  156  164  160
-2.432594 -9.341365 -28.574503  133  141  137
-2.432594 -9.436131 -28.574503  93  124  84
-2.433815 -11.060210 -28.611118  64  109  0
-2.433815 -11.155098 -28.611118  82  118  0
-2.433815 -11.249986 -28.611118  106  142  21
-2.449096 -13.730540 -29.069562  148  149  162
-2.449096 -13.826956 -29.069562  120  127  131
-2.449096 -13.923372 -29.069562  85  93  97
-2.449096 -14.019788 -29.069562  63  82  74
-2.449096 -14.116204 -29.069562  76  95  87
-2.449096 -14.212620 -29.069562  83  110  88
-2.449096 -14.309036 -29.069562  90  118  96
-2.496421 18.678842 -27.730715  194  179  173
-2.496543 18.589241 -27.734044  187  176  166
-2.496626 18.498859 -27.736294  185  175  165
-2.496769 18.409623 -27.740203  177  171  159
-2.496930 18.320695 -27.744591  169  163  152
-2.497044 18.230851 -27.747699  162  151  153
-2.497281 18.143304 -27.754168  170  160  161
-2.497401 18.053517 -27.757436  168  154  158
-2.497659 17.966275 -27.764461  164  150  154
-2.497829 17.877379 -27.769122  164  146  151
-2.498055 17.789452 -27.775262  155  138  142
-2.498402 17.703733 -27.784741  155  136  134
-2.498727 17.617534 -27.793598  159  140  138
-2.499042 17.531105 -27.802199  134  116  107
-2.499239 17.442480 -27.807575  141  123  114
-2.502432 17.407743 -27.894655  138  123  112
-2.502515 17.316730 -27.896919  123  109  97
-2.502627 17.226210 -27.899961  112  99  94
-2.502703 17.135040 -27.902034  117  105  99
-2.502798 17.044196 -27.904632  122  112  113
-2.502945 16.954246 -27.908647  122  111  112
