ply
format ascii 1.0
element face 0
property list uint8 int32 vertex_indices
element vertex 1068
property float x
property float y
property float z
property uchar diffuse_red 
property uchar diffuse_green 
property uchar diffuse_blue 
end_header
-2.896645 9.871228 -22.608551  115  92  109
-2.897103 9.802557 -22.622273  88  65  85
-2.897466 9.732423 -22.633158  61  39  59
-2.897928 9.663656 -22.647041  73  49  92
-2.898162 9.591513 -22.654037  90  67  109
-2.900608 9.020537 -22.727434  97  72  97
-2.901403 8.879621 -22.751284  89  64  78
-2.901761 8.808524 -22.762030  104  79  100
-2.902330 8.740106 -22.779074  106  81  102
-2.927921 3.817427 -23.546826  89  56  74
-2.927921 3.738951 -23.546826  189  156  174
-2.927921 3.660474 -23.546826  251  228  239
-2.927921 3.581998 -23.546826  245  222  232
-2.927921 3.503521 -23.546826  197  188  190
-2.927921 3.425045 -23.546826  154  145  147
-2.927921 3.268092 -23.546826  167  163  163
-2.981384 -4.977100 -25.150702  182  180  195
-2.981305 -5.060559 -25.148330  169  151  155
-2.980060 -8.318759 -25.110984  163  49  0
-2.980060 -8.653521 -25.110984  159  127  67
-2.999467 -10.881389 -25.693190  71  121  0
-2.999467 -10.967020 -25.693190  97  133  4
-2.998234 -12.919644 -25.656201  148  154  163
-2.998234 -13.005152 -25.656201  147  160  161
-2.998234 -13.090660 -25.656201  124  137  137
-2.998234 -13.176167 -25.656201  69  88  85
-2.998234 -13.261675 -25.656201  18  38  35
-2.998234 -13.347183 -25.656201  1  25  23
-2.998234 -13.518199 -25.656201  40  67  36
-2.998234 -13.603707 -25.656201  71  98  67
-2.962075 14.428835 -22.338009  163  137  124
-2.962095 14.354783 -22.338576  194  168  155
-2.963187 13.108194 -22.368335  139  120  121
-2.963200 13.033873 -22.368692  146  128  128
-2.963211 12.959512 -22.368990  179  160  162
-2.965329 12.398158 -22.426763  186  161  160
-2.969744 10.667739 -22.547169  196  172  180
-2.970733 10.531485 -22.574158  161  137  148
-2.970982 10.459754 -22.580940  123  98  110
-2.971204 10.387611 -22.587005  122  99  111
-2.971380 10.314774 -22.591791  141  118  130
-2.971380 10.239481 -22.591791  103  81  92
-2.971380 10.164188 -22.591791  89  66  78
-2.971380 10.088895 -22.591791  65  43  56
-2.971380 10.013602 -22.591791  48  26  39
-2.971380 9.938309 -22.591791  48  26  43
-2.973993 9.897935 -22.663056  61  39  55
-2.974410 9.827938 -22.674426  68  46  66
-2.975257 9.687886 -22.697521  86  63  105
-2.975484 9.615192 -22.703711  105  82  124
-2.977499 9.110440 -22.758662  96  71  96
-2.978099 9.041965 -22.775051  105  81  106
-2.978407 8.969807 -22.783437  85  60  74
-2.979200 8.827460 -22.805066  57  31  52
-2.979706 8.757481 -22.818863  55  30  51
-3.002432 3.247542 -23.438668  160  156  156
-3.067177 -4.985162 -25.204448  186  184  198
-3.067050 -5.068632 -25.200982  178  160  164
-3.066926 -5.152091 -25.197588  127  110  114
-3.063750 -8.318759 -25.110984  159  46  0
-3.071221 -8.713966 -25.314733  170  138  78
-3.081294 -10.842314 -25.589452  73  122  0
-3.082172 -12.985466 -25.613407  144  157  158
-3.082172 -13.156197 -25.613407  91  110  107
-3.082172 -13.241562 -25.613407  87  107  104
-3.082172 -13.326927 -25.613407  88  111  110
-3.082172 -13.412292 -25.613407  98  121  120
-3.082172 -13.497657 -25.613407  78  105  74
-3.082172 -13.583023 -25.613407  74  100  69
-3.036522 14.428835 -22.338009  165  141  126
-3.036685 14.059389 -22.342093  179  161  150
-3.036761 13.911753 -22.343993  183  164  168
-3.036822 13.838317 -22.345523  159  138  149
-3.037596 13.702264 -22.364860  181  159  149
-3.037735 13.108194 -22.368335  129  113  113
-3.037749 13.033873 -22.368692  142  126  126
-3.037761 12.959512 -22.368990  174  158  161
-3.042643 12.512106 -22.491034  180  158  159
-3.042643 11.837490 -22.491034  158  136  139
-3.045268 10.973438 -22.556654  192  169  188
-3.045268 10.898262 -22.556654  186  163  182
-3.047712 10.855681 -22.617768  172  154  176
-3.048109 10.785558 -22.627688  156  138  160
-3.048244 10.711931 -22.631077  134  116  142
-3.048387 10.638370 -22.634639  113  94  121
-3.048539 10.564905 -22.638428  77  58  90
-3.048697 10.491509 -22.642402  51  32  64
-3.048921 10.418917 -22.647992  71  53  88
-3.049096 10.345663 -22.652358  106  88  123
-3.049221 10.271758 -22.655495  87  70  107
-3.049481 10.199522 -22.661992  74  56  94
-3.049689 10.126596 -22.667193  63  46  87
-3.050462 10.060654 -22.686526  62  45  87
-3.052690 9.709342 -22.742221  70  48  109
-3.053913 9.040952 -22.772799  133  109  142
-3.053913 8.965055 -22.772799  128  102  124
-3.056971 8.846901 -22.849250  89  63  91
-3.057458 8.776061 -22.861413  79  52  80
-3.057794 8.703515 -22.869827  104  76  122
-3.080021 3.869613 -23.425485  99  71  104
-3.080021 3.479253 -23.425485  207  199  203
-3.080021 3.245037 -23.425485  166  163  165
-3.099373 0.388623 -23.909288  166  161  167
-3.152370 -4.989627 -25.234216  180  182  199
-3.152370 -5.073728 -25.234216  178  164  171
-3.152370 -5.157829 -25.234216  133  120  127
-3.156924 -8.385932 -25.348062  152  47  0
-3.157705 -8.729651 -25.367602  165  142  91
-3.167176 -10.933263 -25.604355  100  138  7
-3.167247 -12.982128 -25.606149  143  146  168
-3.167247 -13.067469 -25.606149  116  119  141
-3.167247 -13.408833 -25.606149  101  118  109
-3.110969 14.428835 -22.338009  165  140  125
-3.110994 14.354783 -22.338576  189  164  149
-3.111071 14.207112 -22.340355  179  157  159
-3.111102 14.133162 -22.341091  174  157  146
-3.111228 13.911753 -22.343993  171  152  157
-3.111295 13.838317 -22.345523  140  119  130
-3.112132 13.702264 -22.364860  181  159  150
-3.112199 13.479668 -22.366404  178  153  147
-3.112235 13.331112 -22.367217  192  167  173
-3.112266 13.182493 -22.367948  163  142  132
-3.112283 13.108194 -22.368335  130  114  115
-3.112299 13.033873 -22.368692  144  128  129
-3.112311 12.959512 -22.368990  178  161  164
-3.119185 12.759650 -22.527602  186  166  169
-3.119601 11.864275 -22.537214  156  134  138
-3.121471 11.738798 -22.580375  155  131  137
-3.121680 11.666284 -22.585183  188  164  170
-3.122653 11.377707 -22.607651  188  163  169
-3.122839 11.304733 -22.611939  182  157  166
-3.123097 11.232646 -22.617890  166  142  150
-3.123277 11.159535 -22.622041  143  120  134
-3.123420 11.085933 -22.625338  138  115  129
-3.123601 11.012786 -22.629521  137  114  133
-3.123981 10.942068 -22.638280  128  105  123
-3.124316 10.870744 -22.646013  108  90  112
-3.124758 10.800684 -22.656227  96  78  100
-3.124928 10.727237 -22.660141  84  66  92
-3.125103 10.653834 -22.664187  81  63  89
-3.125287 10.580506 -22.668431  67  49  81
-3.128117 9.856803 -22.733737  47  30  81
-3.128308 9.783167 -22.738144  53  36  87
-3.128308 9.707386 -22.738144  69  46  107
-3.128308 9.176919 -22.738144  68  47  90
-3.128308 9.101138 -22.738144  88  63  96
-3.128308 8.949576 -22.738144  81  55  77
-3.128308 8.873795 -22.738144  64  38  59
-3.128308 8.798014 -22.738144  59  32  60
-3.128308 8.722233 -22.738144  68  41  69
-3.159056 3.874427 -23.447701  53  25  58
-3.159056 3.718135 -23.447701  152  121  140
-3.159056 3.483696 -23.447701  220  211  216
-3.159056 3.405550 -23.447701  168  159  163
-3.159056 3.249258 -23.447701  165  161  163
-3.179058 0.388623 -23.909288  164  159  165
-3.241166 -5.090339 -25.342545  184  171  178
-3.241166 -5.174801 -25.342545  154  140  148
-3.241166 -5.259263 -25.342545  138  96  52
-3.242907 -8.395757 -25.382741  154  49  0
-3.243229 -8.820964 -25.390160  120  138  93
-3.243229 -10.767247 -25.390160  70  120  0
-3.251676 -10.925941 -25.585088  98  136  5
-3.251837 -12.974156 -25.588818  148  151  173
-3.251837 -13.059439 -25.588818  134  137  159
-3.251837 -13.144722 -25.588818  109  118  134
-3.251837 -13.230005 -25.588818  86  96  111
-3.251837 -13.315289 -25.588818  90  107  98
-3.251837 -13.656421 -25.588818  109  127  112
-3.251837 -13.741705 -25.588818  147  164  150
-3.185416 14.428835 -22.338009  176  153  137
-3.185443 14.354783 -22.338576  198  174  158
-3.185526 14.207112 -22.340355  136  113  114
-3.185560 14.133162 -22.341091  127  109  97
-3.185607 14.059389 -22.342093  161  143  131
-3.185767 13.838317 -22.345523  137  115  125
-3.186669 13.702264 -22.364860  185  162  151
-3.186716 13.553853 -22.365865  179  154  147
-3.186741 13.479668 -22.366404  156  131  124
-3.186761 13.405404 -22.366831  158  132  137
-3.186813 13.182493 -22.367948  163  142  131
-3.186831 13.108194 -22.368335  122  108  108
-3.186848 13.033873 -22.368692  139  125  126
-3.186862 12.959512 -22.368990  181  165  168
-3.186963 12.811763 -22.371146  169  151  156
-3.192006 12.804566 -22.479213  166  148  153
-3.197192 12.572691 -22.590353  143  121  122
-3.197433 12.425222 -22.595504  170  147  146
-3.198457 11.835431 -22.617446  122  106  108
-3.198624 11.762116 -22.621045  159  140  148
-3.198789 11.688739 -22.624579  197  178  186
-3.198977 11.615617 -22.628603  187  165  179
-3.199112 11.541828 -22.631490  182  160  173
-3.199222 11.467729 -22.633858  162  139  157
-3.199487 11.395457 -22.639539  149  126  144
-3.199594 11.321263 -22.641811  133  111  136
-3.199747 11.247615 -22.645105  106  83  108
-3.199876 11.173647 -22.647854  75  53  87
-3.199952 11.099060 -22.649498  73  51  85
-3.200055 11.024765 -22.651703  80  58  98
-3.200206 9.742952 -22.654941  38  25  100
-3.200206 9.667448 -22.654941  63  40  114
-3.200206 9.591944 -22.654941  92  69  143
-3.200206 8.987916 -22.654941  128  103  142
-3.200206 8.912412 -22.654941  120  94  119
-3.200206 8.836908 -22.654941  114  88  113
-3.200206 8.761405 -22.654941  115  88  119
-3.204089 8.722233 -22.738144  116  89  120
-3.204089 7.888643 -22.738144  80  52  89
-3.240529 3.889874 -23.518994  64  37  73
-3.240529 3.811490 -23.518994  67  38  59
-3.240529 3.733106 -23.518994  146  118  139
-3.240529 3.654722 -23.518994  219  201  215
-3.240529 3.576339 -23.518994  248  229  243
-3.240529 3.497955 -23.518994  215  208  215
-3.240529 3.419571 -23.518994  163  156  163
-3.240529 3.262803 -23.518994  156  152  158
-3.325628 -5.090339 -25.342545  188  176  185
-3.325628 -5.174801 -25.342545  172  161  170
-3.325628 -5.259263 -25.342545  155  104  106
-3.326652 -8.390589 -25.364502  152  58  7
-3.326652 -8.475125 -25.364502  157  92  53
-3.326652 -8.728731 -25.364502  174  159  113
-3.326652 -8.813267 -25.364502  123  143  106
-3.327850 -10.767247 -25.390160  77  124  0
-3.336883 -10.925425 -25.583730  106  141  26
-3.336927 -12.972247 -25.584668  156  156  166
-3.336927 -13.057516 -25.584668  138  137  147
-3.336927 -13.142785 -25.584668  94  101  102
-3.336927 -13.228055 -25.584668  47  53  54
-3.336927 -13.313324 -25.584668  41  50  57
-3.336927 -13.739671 -25.584668  140  158  147
-3.259934 14.280925 -22.339430  184  161  162
-3.259981 14.207112 -22.340355  138  115  116
-3.260067 14.059389 -22.342093  179  161  148
-3.260087 13.985199 -22.342491  204  184  187
-3.260162 13.911753 -22.343993  173  154  156
-3.260239 13.838317 -22.345523  132  110  120
-3.260310 13.764790 -22.346935  131  109  119
-3.261206 13.702264 -22.364860  188  165  154
-3.261256 13.553853 -22.365865  167  141  135
-3.261283 13.479668 -22.366404  135  110  103
-3.261304 13.405404 -22.366831  140  114  119
-3.261324 13.331112 -22.367217  183  157  162
-3.261360 13.182493 -22.367948  169  148  137
-3.261380 13.108194 -22.368335  124  110  110
-3.261397 13.033873 -22.368692  143  129  130
-3.261412 12.959512 -22.368990  188  172  175
-3.261520 12.811763 -22.371146  145  127  132
-3.266923 12.804566 -22.479213  126  108  113
-3.272097 12.793804 -22.582689  154  135  139
-3.274262 12.669835 -22.625988  179  157  158
-3.274304 12.594934 -22.626818  147  125  126
-3.274354 12.520134 -22.627823  144  121  121
-3.274389 12.445143 -22.628523  179  155  155
-3.274423 12.370130 -22.629194  195  170  172
-3.274471 12.219866 -22.630158  155  128  132
-3.274495 12.144730 -22.630640  158  131  135
-3.274525 12.069662 -22.631244  180  165  162
-3.274613 11.844402 -22.633002  104  88  90
-3.274642 11.769305 -22.633584  125  106  114
-3.274674 11.694240 -22.634229  151  131  140
-3.274714 11.619253 -22.635019  124  102  115
-3.274714 11.543816 -22.635019  103  81  95
-3.274714 11.468379 -22.635019  98  75  93
-3.274714 11.392942 -22.635019  92  69  88
-3.274714 10.563132 -22.635019  55  41  90
-3.274714 10.412258 -22.635019  50  36  90
-3.274714 9.733323 -22.635019  40  26  102
-3.274714 9.582448 -22.635019  93  69  143
-3.274714 9.507011 -22.635019  108  89  149
-3.275710 9.063419 -22.654941  100  75  113
-3.323405 3.830657 -23.608840  80  51  73
-3.323405 3.673290 -23.608840  216  197  212
-3.323405 3.594607 -23.608840  251  233  247
-3.323405 3.515924 -23.608840  229  221  228
-3.323405 3.437241 -23.608840  178  170  177
-3.323405 3.279874 -23.608840  151  147  153
-3.410090 -5.174801 -25.342545  179  167  177
-3.410090 -5.259263 -25.342545  165  114  116
-3.410529 -8.302365 -25.351328  152  58  7
-3.410529 -8.724823 -25.351328  180  164  118
-3.410529 -8.809315 -25.351328  134  153  117
-3.410529 -8.893806 -25.351328  105  125  88
-3.412471 -10.682626 -25.390160  70  117  0
-3.412471 -10.767247 -25.390160  77  125  0
-3.422149 -10.925425 -25.583730  108  143  27
-3.426251 -13.009554 -25.665772  158  157  167
-3.426251 -13.095094 -25.665772  153  152  162
-3.426251 -13.180634 -25.665772  127  134  135
-3.426251 -13.266173 -25.665772  87  94  94
-3.426251 -13.351713 -25.665772  69  78  85
-3.426251 -13.437253 -25.665772  95  104  110
-3.426251 -13.522793 -25.665772  119  149  125
-3.426251 -13.608332 -25.665772  118  148  125
-3.334341 14.354783 -22.338576  197  175  173
-3.334386 14.280925 -22.339430  178  162  151
-3.334436 14.207112 -22.340355  134  118  107
-3.334528 14.059389 -22.342093  166  152  146
-3.334549 13.985199 -22.342491  196  184  184
-3.334630 13.911753 -22.343993  176  163  164
-3.334711 13.838317 -22.345523  121  106  111
-3.335825 13.479668 -22.366404  136  113  110
-3.335868 13.331112 -22.367217  186  163  150
-3.335907 13.182493 -22.367948  159  137  117
-3.335928 13.108194 -22.368335  120  103  106
-3.335947 13.033873 -22.368692  154  138  140
-3.335963 12.959512 -22.368990  181  165  170
-3.336078 12.811763 -22.371146  140  125  131
-3.347360 12.793804 -22.582689  166  148  152
-3.349632 12.744810 -22.625287  193  175  178
-3.350048 12.598754 -22.633080  133  112  108
-3.350056 12.297128 -22.633242  168  146  127
-3.350056 12.221697 -22.633242  134  114  91
-3.350056 12.070834 -22.633242  167  164  158
-3.350056 11.844540 -22.633242  81  72  78
-3.350056 11.769109 -22.633242  75  57  89
-3.350056 11.693678 -22.633242  93  75  107
-3.350151 9.507011 -22.635019  107  92  152
-3.351213 9.214426 -22.654941  101  80  126
-3.355651 8.646452 -22.738144  123  99  128
-3.355651 7.737081 -22.738144  84  56  86
-3.402360 3.831746 -23.613945  73  47  77
-3.402360 3.753046 -23.613945  122  96  126
-3.402360 3.516945 -23.613945  230  219  227
-3.402360 3.280844 -23.613945  154  148  146
-3.494552 -5.174801 -25.342545  175  174  178
-3.494678 -8.300567 -25.344905  143  66  1
-3.494678 -8.469507 -25.344905  173  126  93
-3.494678 -8.722917 -25.344905  171  166  150
-3.494678 -8.807388 -25.344905  133  160  152
-3.494678 -8.891858 -25.344905  103  131  122
-3.497092 -10.682626 -25.390160  82  116  0
-3.511807 -10.956717 -25.666076  120  143  61
-3.511802 -12.838563 -25.665967  150  157  154
-3.511802 -12.924104 -25.665967  154  161  157
-3.511802 -13.009644 -25.665967  150  156  180
-3.511802 -13.095184 -25.665967  157  163  187
-3.511802 -13.180725 -25.665967  156  168  200
-3.511802 -13.266265 -25.665967  148  159  192
-3.511802 -13.351806 -25.665967  144  167  157
-3.511802 -13.437346 -25.665967  150  173  163
-3.511802 -13.522886 -25.665967  150  173  153
-3.511802 -13.608427 -25.665967  135  159  139
-3.408758 14.428835 -22.338009  172  150  148
-3.408790 14.354783 -22.338576  190  168  166
-3.408838 14.280925 -22.339430  169  152  142
-3.408891 14.207112 -22.340355  125  109  98
-3.408932 14.133162 -22.341091  130  117  110
-3.408989 14.059389 -22.342093  166  152  146
-3.409263 13.764790 -22.346935  124  109  114
-3.410279 13.702264 -22.364860  188  168  172
-3.410391 13.405404 -22.366831  148  124  112
-3.410413 13.331112 -22.367217  193  170  157
-3.410635 12.811763 -22.371146  139  124  131
-3.422623 12.793804 -22.582689  171  153  157
-3.425037 12.744810 -22.625287  199  181  185
-3.425477 12.674171 -22.633058  171  150  146
-3.425478 12.598754 -22.633080  128  106  102
-3.425488 12.297128 -22.633242  170  148  129
-3.425488 12.221697 -22.633242  137  117  94
-3.425488 12.070834 -22.633242  179  175  170
-3.425488 11.919971 -22.633242  138  129  136
-3.425488 11.844540 -22.633242  70  61  67
-3.425488 11.391952 -22.633242  100  75  123
-3.425488 11.316521 -22.633242  100  81  114
-3.425488 11.241090 -22.633242  83  63  96
-3.425488 11.090227 -22.633242  79  63  103
-3.425488 11.014796 -22.633242  103  87  146
-3.425488 10.939365 -22.633242  94  79  138
-3.425488 10.863933 -22.633242  67  56  116
-3.425588 9.657886 -22.635019  64  51  115
-3.425588 9.431574 -22.635019  92  77  137
-3.426717 9.214426 -22.654941  92  70  117
-3.426717 8.987916 -22.654941  122  98  138
-3.431432 8.646452 -22.738144  111  88  116
-3.431432 7.888643 -22.738144  92  65  94
-3.431432 7.737081 -22.738144  97  70  100
-3.481698 4.385310 -23.625192  86  59  95
-3.481698 4.306572 -23.625192  70  45  79
-3.481698 3.834146 -23.625192  47  21  51
-3.481698 3.755408 -23.625192  93  66  97
-3.481698 3.597932 -23.625192  247  228  249
-3.481698 3.519194 -23.625192  234  222  230
-3.481698 3.282981 -23.625192  157  151  149
-3.481698 3.204243 -23.625192  173  168  164
-3.617813 -5.368811 -26.027222  187  151  167
-3.579206 -8.216377 -25.345920  140  52  0
-3.579206 -8.300851 -25.345920  145  69  3
-3.579206 -8.385325 -25.345920  183  106  41
-3.579206 -8.469798 -25.345920  190  143  110
-3.579206 -8.723219 -25.345920  170  165  149
-3.579206 -8.807692 -25.345920  139  166  158
-3.579206 -8.892166 -25.345920  120  147  139
-3.579206 -8.976639 -25.345920  85  132  77
-3.597366 -10.956834 -25.666385  140  163  81
-3.597363 -12.838728 -25.666331  150  157  153
-3.597363 -12.924270 -25.666331  128  135  132
-3.597363 -13.009812 -25.666331  89  96  120
-3.597363 -13.095353 -25.666331  73  79  103
-3.597363 -13.180895 -25.666331  67  78  110
-3.597363 -13.266436 -25.666331  56  67  100
-3.597363 -13.351978 -25.666331  39  62  52
-3.483205 14.428835 -22.338009  175  158  154
-3.483239 14.354783 -22.338576  188  171  167
-3.483450 14.059389 -22.342093  164  152  144
-3.483564 13.911753 -22.343993  160  149  147
-3.483656 13.838317 -22.345523  116  103  105
-3.483740 13.764790 -22.346935  131  118  120
-3.484816 13.702264 -22.364860  186  168  170
-3.484909 13.479668 -22.366404  129  108  103
-3.484934 13.405404 -22.366831  149  128  114
-3.484957 13.331112 -22.367217  196  175  161
-3.500919 12.447991 -22.633242  177  154  144
-3.500919 12.146265 -22.633242  150  130  113
-3.500919 12.070834 -22.633242  180  171  172
-3.500919 11.844540 -22.633242  87  74  83
-3.500919 11.693678 -22.633242  106  85  116
-3.500919 11.542815 -22.633242  84  57  106
-3.500919 11.467384 -22.633242  94  68  112
-3.500919 11.316521 -22.633242  119  98  126
-3.500919 11.090227 -22.633242  88  70  101
-3.500919 10.939365 -22.633242  100  83  130
-3.500919 10.637640 -22.633242  64  46  106
-3.500919 10.562208 -22.633242  45  28  90
-3.501025 9.431574 -22.635019  86  68  117
-3.502221 9.214426 -22.654941  102  78  119
-3.502221 9.063419 -22.654941  99  73  110
-3.507213 8.646452 -22.738144  113  86  119
-3.507213 7.888643 -22.738144  86  62  92
-3.507213 7.737081 -22.738144  98  73  105
-3.560436 4.700260 -23.625189  91  68  102
-3.568209 4.653480 -23.754746  84  62  95
-3.568209 4.574310 -23.754746  77  55  88
-3.568209 4.495141 -23.754746  57  36  68
-3.568209 4.415971 -23.754746  56  36  67
-3.568209 3.940953 -23.754746  56  39  68
-3.568209 3.861784 -23.754746  42  17  53
-3.568209 3.782614 -23.754746  75  50  87
-3.568209 3.545105 -23.754746  236  226  240
-3.568209 3.386766 -23.754746  150  144  148
-3.568209 3.228427 -23.754746  169  165  165
-3.612175 0.835232 -24.487519  172  172  181
-3.612175 0.427171 -24.487519  141  136  144
-3.612175 0.345559 -24.487519  166  161  168
-3.704558 -5.368811 -26.027222  171  173  221
-3.704558 -5.455556 -26.027222  152  154  202
-3.704558 -5.542301 -26.027222  143  113  130
-3.666808 -8.230802 -25.398059  148  62  0
-3.666808 -8.400097 -25.398059  201  128  85
-3.666808 -8.484744 -25.398059  202  156  147
-3.666808 -8.907981 -25.398059  151  151  172
-3.666808 -8.992629 -25.398059  126  130  122
-3.666334 -10.598005 -25.390160  66  113  0
-3.686735 -12.781915 -25.730172  154  155  173
-3.686735 -12.867670 -25.730172  134  141  133
-3.686735 -12.953424 -25.730172  107  114  106
-3.686735 -13.039178 -25.730172  53  64  59
-3.686735 -13.124933 -25.730172  18  29  24
-3.686735 -13.210687 -25.730172  8  27  8
-3.686735 -13.296441 -25.730172  14  33  14
-3.686735 -13.382196 -25.730172  21  55  0
-3.686735 -13.467950 -25.730172  29  62  0
-3.686735 -13.553705 -25.730172  23  51  0
-3.686735 -13.639459 -25.730172  45  74  22
-3.557652 14.428835 -22.338009  194  177  173
-3.557936 13.985199 -22.342491  205  195  192
-3.558031 13.911753 -22.343993  179  168  166
-3.559416 13.553853 -22.365865  157  136  131
-3.559450 13.479668 -22.366404  124  103  98
-3.559477 13.405404 -22.366831  141  120  106
-3.559502 13.331112 -22.367217  183  163  148
-3.559548 13.182493 -22.367948  158  139  118
-3.559573 13.108194 -22.368335  116  101  99
-3.559595 13.033873 -22.368692  154  139  137
-3.559614 12.959512 -22.368990  187  173  174
-3.559751 12.811763 -22.371146  137  123  128
-3.573148 12.793804 -22.582689  165  148  151
-3.576338 12.674171 -22.633058  175  154  151
-3.576340 12.598754 -22.633080  130  109  106
-3.576350 12.447991 -22.633242  183  160  151
-3.576350 12.297128 -22.633242  164  142  128
-3.576350 12.221697 -22.633242  135  116  99
-3.576350 12.146265 -22.633242  155  135  118
-3.576350 12.070834 -22.633242  174  166  166
-3.576350 11.919971 -22.633242  140  127  136
-3.576350 11.844540 -22.633242  79  66  75
-3.576350 10.260483 -22.633242  65  49  113
-3.577724 9.063419 -22.654941  98  72  109
-3.577724 8.761405 -22.654941  99  71  105
-3.582994 8.646452 -22.738144  120  93  126
-3.582994 7.888643 -22.738144  74  50  80
-3.582994 7.737081 -22.738144  97  73  104
-3.627933 4.968473 -23.447702  100  75  111
-3.665838 5.045940 -24.046212  94  70  105
-3.665838 4.965799 -24.046212  84  60  95
-3.665838 4.885657 -24.046212  70  47  82
-3.665838 4.805516 -24.046212  60  37  72
-3.665835 4.725363 -24.046163  52  30  63
-3.665832 4.244505 -24.046112  53  35  64
-3.665832 4.164364 -24.046112  58  40  70
-3.665832 3.923942 -24.046112  52  27  64
-3.665832 3.843801 -24.046112  70  45  81
-3.665832 3.603378 -24.046112  237  227  241
-3.665832 3.443097 -24.046112  151  145  149
-3.665832 3.282815 -24.046112  167  162  163
-3.791302 -5.455556 -26.027222  169  171  219
-3.791302 -5.542301 -26.027222  171  141  157
-3.791302 -5.629045 -26.027222  132  102  118
-3.791302 -5.715790 -26.027222  134  64  38
-3.754437 -8.074220 -25.445143  144  52  0
-3.754437 -8.159025 -25.445143  155  69  0
-3.754437 -8.243829 -25.445143  182  96  23
-3.754437 -8.328633 -25.445143  196  123  80
-3.754437 -8.413438 -25.445143  211  138  95
-3.754437 -8.922263 -25.445143  155  156  177
-3.754437 -9.007068 -25.445143  137  141  133
-3.754437 -9.091872 -25.445143  107  111  104
-3.754437 -9.176676 -25.445143  93  101  25
-3.750955 -10.513384 -25.390160  71  118  0
-3.750955 -10.682626 -25.390160  113  142  15
-3.750955 -10.767247 -25.390160  139  168  41
-3.780545 -12.839154 -25.857369  153  155  173
-3.780545 -12.925332 -25.857369  153  161  152
-3.780545 -13.011511 -25.857369  152  160  151
-3.780545 -13.097689 -25.857369  134  145  140
-3.780545 -13.183868 -25.857369  127  137  132
-3.780545 -13.614759 -25.857369  150  178  127
-3.780545 -13.700938 -25.857369  147  176  124
-3.632194 14.280925 -22.339430  118  108  95
-3.632305 14.133162 -22.341091  110  102  93
-3.632371 14.059389 -22.342093  115  107  98
-3.632398 13.985199 -22.342491  122  116  112
-3.632498 13.911753 -22.343993  124  118  114
-3.632600 13.838317 -22.345523  123  115  114
-3.633889 13.702264 -22.364860  154  142  140
-3.633923 13.628063 -22.365366  159  147  146
-3.633956 13.553853 -22.365865  154  139  132
-3.633992 13.479668 -22.366404  149  133  127
-3.634021 13.405404 -22.366831  163  148  133
-3.634046 13.331112 -22.367217  181  166  152
-3.634070 13.256800 -22.367576  178  164  144
-3.634095 13.182493 -22.367948  154  140  120
-3.634121 13.108194 -22.368335  146  134  127
-3.634145 13.033873 -22.368692  168  156  149
-3.634165 12.959512 -22.368990  187  176  173
-3.634252 12.885788 -22.370301  183  172  168
-3.634308 12.811763 -22.371146  146  135  136
-3.641513 12.804566 -22.479213  137  126  127
-3.648411 12.793804 -22.582689  180  166  169
-3.651251 12.744810 -22.625287  208  195  197
-3.651769 12.674171 -22.633058  171  154  153
-3.651771 12.598754 -22.633080  139  121  121
-3.651781 12.447991 -22.633242  189  169  165
-3.651781 12.372559 -22.633242  195  177  169
-3.651781 12.297128 -22.633242  162  144  136
-3.651781 12.221697 -22.633242  129  113  103
-3.651781 11.919971 -22.633242  143  127  146
-3.651781 11.844540 -22.633242  94  78  97
-3.651781 11.769109 -22.633242  103  81  117
-3.651781 11.693678 -22.633242  131  109  145
-3.651781 11.618246 -22.633242  118  92  146
-3.651781 11.542815 -22.633242  89  63  118
-3.651781 11.165659 -22.633242  86  67  104
-3.651781 10.335914 -22.633242  81  61  112
-3.651900 9.431574 -22.635019  83  65  104
-3.653228 9.365434 -22.654941  109  88  125
-3.653228 9.214426 -22.654941  96  71  107
-3.658775 7.888643 -22.738144  73  52  81
-3.658775 7.737081 -22.738144  100  79  110
-3.658775 7.661300 -22.738144  110  89  120
-3.776027 6.632710 -24.496926  98  80  115
-3.776027 5.571343 -24.496926  93  75  110
-3.776027 5.489700 -24.496926  81  63  98
-3.776027 5.408056 -24.496926  75  57  93
-3.776027 5.326413 -24.496926  60  43  73
-3.776027 5.244769 -24.496926  60  43  73
-3.776027 5.163126 -24.496926  59  43  72
-3.754777 3.952115 -24.178174  44  21  62
-3.754777 3.549210 -24.178174  188  179  200
-3.754777 3.307467 -24.178174  164  160  166
-3.878047 -5.542301 -26.027222  177  180  164
-3.878047 -5.629045 -26.027222  155  159  142
-3.878047 -5.715790 -26.027222  146  118  91
-3.878047 -5.802534 -26.027222  117  89  62
-3.878047 -5.889279 -26.027222  121  66  15
-3.842480 -7.832440 -25.493728  142  59  0
-3.842480 -7.917406 -25.493728  141  58  0
-3.842480 -8.002372 -25.493728  123  74  23
-3.842480 -8.087338 -25.493728  137  88  37
-3.842480 -8.172305 -25.493728  158  117  68
-3.842480 -8.257271 -25.493728  188  148  98
-3.842480 -9.021967 -25.493728  148  150  170
-3.842480 -9.106933 -25.493728  130  132  152
-3.842480 -9.191899 -25.493728  111  111  86
-3.835576 -10.428763 -25.390160  72  118  0
-3.835576 -10.598005 -25.390160  96  141  11
-3.835576 -10.682626 -25.390160  142  158  94
-3.880281 -13.278095 -26.060738  146  149  184
-3.880281 -13.364951 -26.060738  151  161  196
-3.880281 -13.625520 -26.060738  87  110  106
-3.880281 -13.712377 -26.060738  100  120  122
-3.706546 14.428835 -22.338009  207  197  192
-3.706586 14.354783 -22.338576  203  194  188
-3.706646 14.280925 -22.339430  191  181  168
-3.706711 14.207112 -22.340355  196  186  173
-3.706762 14.133162 -22.341091  196  189  179
-3.706832 14.059389 -22.342093  189  181  172
-3.706860 13.985199 -22.342491  179  173  169
-3.706965 13.911753 -22.343993  173  167  162
-3.707171 13.764790 -22.346935  165  158  157
-3.708426 13.702264 -22.364860  161  149  148
-3.708461 13.628063 -22.365366  156  143  142
-3.708496 13.553853 -22.365865  143  128  121
-3.708534 13.479668 -22.366404  133  117  111
-3.708564 13.405404 -22.366831  128  113  99
-3.708642 13.182493 -22.367948  112  99  79
-3.708669 13.108194 -22.368335  108  95  88
-3.708694 13.033873 -22.368692  110  98  90
-3.708866 12.811763 -22.371146  92  81  83
-3.723674 12.793804 -22.582689  108  94  96
-3.727200 12.674171 -22.633058  116  98  98
-3.727201 12.598754 -22.633080  97  80  79
-3.727213 12.447991 -22.633242  136  117  112
-3.727213 12.372559 -22.633242  145  126  118
-3.727213 12.297128 -22.633242  133  114  106
-3.727213 12.221697 -22.633242  115  98  89
-3.727213 12.146265 -22.633242  126  110  100
-3.727213 12.070834 -22.633242  147  133  149
-3.727213 11.995403 -22.633242  153  139  154
-3.727213 11.919971 -22.633242  139  122  142
-3.727213 11.844540 -22.633242  119  103  122
-3.727213 11.693678 -22.633242  158  136  172
-3.727213 11.391952 -22.633242  148  122  175
-3.727213 11.241090 -22.633242  122  100  138
-3.727213 11.014796 -22.633242  135  117  165
-3.727213 10.863933 -22.633242  105  84  131
-3.727213 10.562208 -22.633242  90  70  119
-3.727213 10.486777 -22.633242  77  56  106
-3.727213 10.411346 -22.633242  88  67  118
-3.727213 10.335914 -22.633242  110  89  140
-3.727337 10.185946 -22.635019  77  58  107
-3.727337 9.884197 -22.635019  74  57  102
-3.727337 9.808760 -22.635019  59  42  85
-3.727337 9.733323 -22.635019  64  47  90
-3.727337 9.431574 -22.635019  91  73  113
-3.728732 9.214426 -22.654941  106  82  118
-3.734556 8.040204 -22.738144  111  90  117
-3.734556 7.888643 -22.738144  80  58  88
-3.734556 7.737081 -22.738144  100  78  109
-3.780209 7.058150 -23.390334  84  60  86
-3.857558 6.142368 -24.495324  78  60  96
-3.857558 6.060729 -24.495324  81  63  98
-3.857558 5.979091 -24.495324  98  80  116
-3.857558 5.897453 -24.495324  90  73  108
-3.857558 5.815815 -24.495324  64  46  81
-3.857558 5.734176 -24.495324  54  36  71
-3.857558 5.652538 -24.495324  62  44  79
-3.857558 5.570900 -24.495324  55  37  72
-3.857558 5.489262 -24.495324  39  22  57
-3.839336 3.964239 -24.235004  37  14  56
-3.839336 3.883468 -24.235004  40  17  59
-3.839336 3.641157 -24.235004  238  229  250
-3.839336 3.560386 -24.235004  194  185  206
-3.839336 3.318075 -24.235004  162  159  165
-3.943832 0.424110 -25.727803  166  162  167
-3.964791 -5.715790 -26.027222  182  154  127
-3.964791 -5.802534 -26.027222  155  127  100
-3.964791 -5.889279 -26.027222  150  95  44
-3.964791 -5.976023 -26.027222  136  81  30
-3.964791 -6.062768 -26.027222  134  63  0
-3.964791 -6.149512 -26.027222  128  58  0
-3.964791 -6.236257 -26.027222  131  54  0
-3.964791 -6.323002 -26.027222  132  56  0
-3.929741 -7.415583 -25.526500  141  49  0
-3.929741 -7.500659 -25.526500  134  45  0
-3.929586 -7.585183 -25.524296  133  44  0
-3.929586 -7.670251 -25.524296  139  53  0
-3.929586 -7.755319 -25.524296  155  69  9
-3.929586 -7.840388 -25.524296  172  88  29
-3.929586 -7.925456 -25.524296  185  101  41
-3.929586 -8.010524 -25.524296  190  142  91
-3.929586 -8.095592 -25.524296  203  154  103
-3.929586 -8.180660 -25.524296  205  164  115
-3.929586 -9.116410 -25.524296  154  156  176
-3.929586 -9.201478 -25.524296  140  139  115
-3.929586 -9.286546 -25.524296  117  117  92
-3.929586 -9.371614 -25.524296  74  116  3
-3.920197 -10.513384 -25.390160  104  149  19
-3.920197 -10.598005 -25.390160  124  169  40
-3.993147 -13.890727 -26.432302  0  15  17
-3.993147 -13.978822 -26.432302  21  40  42
-3.993147 -14.066917 -26.432302  81  94  97
-3.781166 14.207112 -22.340355  202  198  189
-3.781545 13.838317 -22.345523  198  199  197
-3.781648 13.764790 -22.346935  198  199  197
-3.782963 13.702264 -22.364860  199  196  194
-3.783000 13.628063 -22.365366  201  198  196
-3.783036 13.553853 -22.365865  204  197  192
-3.783076 13.479668 -22.366404  209  202  197
-3.783107 13.405404 -22.366831  213  206  195
-3.783135 13.331112 -22.367217  214  207  196
-3.783162 13.256800 -22.367576  217  212  196
-3.783189 13.182493 -22.367948  216  211  196
-3.783217 13.108194 -22.368335  211  206  193
-3.783244 13.033873 -22.368692  207  202  188
-3.783265 12.959512 -22.368990  210  206  197
-3.783362 12.885788 -22.370301  210  206  198
-3.783424 12.811763 -22.371146  204  200  198
-3.791348 12.804566 -22.479213  202  197  195
-3.798937 12.793804 -22.582689  199  192  193
-3.802061 12.744810 -22.625287  190  183  185
-3.802630 12.674171 -22.633058  188  178  179
-3.802632 12.598754 -22.633080  175  164  165
-3.802636 12.523355 -22.633133  175  163  161
-3.802644 12.447991 -22.633242  165  153  151
-3.802644 12.372559 -22.633242  157  146  142
-3.802644 12.297128 -22.633242  151  140  137
-3.802644 12.221697 -22.633242  137  128  124
-3.802644 12.146265 -22.633242  142  132  129
-3.802644 12.070834 -22.633242  131  126  111
-3.802644 11.995403 -22.633242  130  124  109
-3.802644 11.919971 -22.633242  121  116  99
-3.802644 11.844540 -22.633242  106  101  84
-3.802644 11.769109 -22.633242  101  93  90
-3.802644 11.618246 -22.633242  90  78  99
-3.802644 11.542815 -22.633242  96  84  105
-3.802644 11.467384 -22.633242  94  82  109
-3.802644 11.391952 -22.633242  113  101  128
-3.802644 11.316521 -22.633242  112  102  120
-3.802644 11.241090 -22.633242  101  91  109
-3.802644 11.165659 -22.633242  94  86  100
-3.802644 11.090227 -22.633242  103  95  110
-3.802644 11.014796 -22.633242  118  110  132
-3.802644 10.939365 -22.633242  114  106  129
-3.802644 10.863933 -22.633242  92  78  118
-3.802644 10.788502 -22.633242  95  80  120
-3.802644 10.713071 -22.633242  117  102  143
-3.802644 10.637640 -22.633242  126  111  152
-3.802644 10.562208 -22.633242  104  90  132
-3.802644 10.335914 -22.633242  104  89  131
-3.802774 9.733323 -22.635019  80  68  100
-3.802774 9.431574 -22.635019  87  75  114
-3.804235 9.214426 -22.654941  108  89  123
-3.810337 8.267547 -22.738144  98  79  105
-3.810337 8.191766 -22.738144  78  59  81
-3.810337 7.888643 -22.738144  87  68  92
-3.810337 7.812862 -22.738144  84  65  89
-3.810337 7.737081 -22.738144  101  81  108
-3.810337 7.585519 -22.738144  88  68  95
-3.822929 7.041087 -22.909854  102  79  103
-3.858164 7.058150 -23.390334  89  66  89
-3.939038 6.304983 -24.493167  96  80  110
-3.939038 6.223352 -24.493167  76  60  90
-3.939038 6.141721 -24.493167  53  37  67
-3.939038 6.060090 -24.493167  48  32  62
-3.939038 5.978458 -24.493167  49  33  63
-3.939038 5.896827 -24.493167  49  33  63
-3.917537 3.956765 -24.199971  43  23  63
-3.917537 3.876111 -24.199971  44  24  64
-3.917537 3.553496 -24.199971  197  190  212
-4.036395 -5.852115 -25.820755  185  149  174
-4.036395 -5.938171 -25.820755  176  140  165
-4.036395 -6.024228 -25.820755  151  102  100
-4.036395 -6.110284 -25.820755  140  91  89
-4.036395 -6.368453 -25.820755  130  65  27
-4.036395 -6.454509 -25.820755  126  61  23
-4.006064 -6.455086 -25.407145  124  58  19
-4.006316 -6.540487 -25.410590  124  58  19
-4.006527 -6.625788 -25.413460  147  54  0
-4.006737 -6.711107 -25.416322  149  57  0
-4.006974 -6.796529 -25.419567  151  62  0
-4.007206 -6.881954 -25.422725  156  67  0
-4.007501 -6.967594 -25.426741  153  72  13
-4.007751 -7.053122 -25.430157  155  74  16
-4.007993 -7.138646 -25.433455  150  79  32
-4.008261 -7.224276 -25.437107  153  82  35
-4.008513 -7.309878 -25.440544  155  98  63
-4.008753 -7.395464 -25.443818  165  108  73
-4.008958 -7.480953 -25.446614  170  127  103
-4.008958 -7.565762 -25.446614  184  141  117
-4.008958 -7.650572 -25.446614  184  153  137
-4.008958 -7.735381 -25.446614  189  158  142
-4.008958 -7.820190 -25.446614  186  162  149
-4.008958 -7.904999 -25.446614  187  163  150
-4.008958 -9.261946 -25.446614  133  145  163
-4.008958 -9.346755 -25.446614  109  134  75
-4.008958 -9.431565 -25.446614  96  121  62
-4.002936 -10.165835 -25.364502  71  108  0
-4.004818 -10.259521 -25.390160  82  119  5
-4.004818 -10.344142 -25.390160  99  131  35
-4.004818 -10.428763 -25.390160  117  149  53
-4.004818 -10.513384 -25.390160  139  168  83
-4.004818 -10.598005 -25.390160  156  184  100
-4.092462 -13.521144 -26.585305  143  149  154
-3.877465 12.744810 -22.625287  193  186  188
-3.878061 12.674171 -22.633058  201  191  191
-3.878063 12.598754 -22.633080  203  192  193
-3.878067 12.523355 -22.633133  214  201  199
-3.878075 12.447991 -22.633242  205  193  191
-3.878075 12.372559 -22.633242  206  195  192
-3.878075 12.297128 -22.633242  220  209  205
-3.878075 12.221697 -22.633242  216  207  203
-3.878075 12.146265 -22.633242  219  210  206
-3.878075 12.070834 -22.633242  220  215  200
-3.878075 11.995403 -22.633242  218  213  198
-3.878075 11.919971 -22.633242  212  206  190
-3.878075 11.844540 -22.633242  181  175  159
-3.878075 11.769109 -22.633242  123  115  112
-3.878075 11.693678 -22.633242  64  56  53
-3.878075 11.618246 -22.633242  46  34  54
-3.878075 11.391952 -22.633242  112  99  126
-3.878075 11.316521 -22.633242  100  90  108
-3.878075 11.241090 -22.633242  83  74  91
-3.878075 11.165659 -22.633242  72  65  79
-3.878075 11.090227 -22.633242  76  69  83
-3.878075 10.562208 -22.633242  57  43  84
-3.878075 10.486777 -22.633242  45  30  72
-3.878075 10.411346 -22.633242  60  46  88
-3.878075 10.335914 -22.633242  87  73  115
-3.878075 10.260483 -22.633242  78  64  104
-3.878211 10.185946 -22.635019  69  55  95
-3.878211 10.110509 -22.635019  70  57  94
-3.878211 10.035072 -22.635019  81  67  104
-3.878211 9.959634 -22.635019  85  72  107
-3.878211 9.884197 -22.635019  75  62  97
-3.878211 9.808760 -22.635019  73  61  93
-3.878211 9.733323 -22.635019  94  82  114
-3.878211 9.657886 -22.635019  94  84  124
-3.878211 9.582448 -22.635019  89  79  119
-3.878211 9.507011 -22.635019  76  63  102
-3.879739 9.138923 -22.654941  72  53  87
-3.879739 9.063419 -22.654941  98  77  109
-3.879739 8.987916 -22.654941  122  101  134
-3.886118 7.888643 -22.738144  100  81  105
-4.018060 6.457579 -24.459126  63  47  77
-4.018060 6.213026 -24.459126  67  51  81
-4.018060 5.723921 -24.459126  51  35  65
-4.018060 5.642403 -24.459126  64  48  78
-4.018060 5.560885 -24.459126  62  46  76
-4.018060 5.479368 -24.459126  51  35  65
-4.018060 5.397850 -24.459126  46  30  60
-4.006285 4.627333 -24.305545  42  28  49
-4.006285 3.898282 -24.305545  49  30  69
-4.006285 3.331243 -24.305545  158  156  164
-4.142506 0.446565 -26.082344  161  157  161
-4.098006 -6.134695 -25.501902  210  149  123
-4.097821 -6.219215 -25.499493  205  145  118
-4.097679 -6.303830 -25.497643  209  143  105
-4.097594 -6.388584 -25.496533  207  141  103
-4.097463 -6.473205 -25.494816  206  140  101
-4.097346 -6.557856 -25.493297  206  140  101
-4.097251 -6.642556 -25.492058  229  137  64
-4.097162 -6.727265 -25.490897  233  140  68
-4.097067 -6.811950 -25.489662  236  147  79
-4.096979 -6.896647 -25.488515  241  152  85
-4.096864 -6.981254 -25.487008  237  155  97
-4.096745 -7.065841 -25.485458  236  155  97
-4.096635 -7.150444 -25.484017  227  157  110
-4.096514 -7.235005 -25.482443  228  158  111
-4.096399 -7.319574 -25.480942  221  164  129
-4.096399 -7.404497 -25.480942  221  164  129
-4.096399 -7.829115 -25.480942  192  168  156
-4.096399 -7.914039 -25.480942  195  171  158
-4.096399 -7.998963 -25.480942  190  169  165
-4.096399 -8.083886 -25.480942  182  161  158
-4.096399 -8.168810 -25.480942  179  161  156
-4.096399 -8.253733 -25.480942  184  166  161
-4.096399 -8.338657 -25.480942  179  164  177
-4.096399 -8.423581 -25.480942  169  154  167
-4.096399 -8.508504 -25.480942  156  149  160
-4.096399 -8.593428 -25.480942  155  147  159
-4.096399 -8.678352 -25.480942  145  148  143
-4.096399 -9.442664 -25.480942  136  160  101
-4.096399 -9.527588 -25.480942  118  148  69
-4.096399 -9.612511 -25.480942  106  135  56
-4.096399 -9.697435 -25.480942  97  132  26
-4.096399 -9.782359 -25.480942  89  125  18
-4.093767 -9.855611 -25.446614  81  121  0
-4.093767 -9.940420 -25.446614  76  116  0
-4.099723 -10.052159 -25.524296  90  130  3
-4.097379 -10.126528 -25.493728  95  135  8
-4.087472 -10.165835 -25.364502  111  148  34
-4.089439 -10.259521 -25.390160  133  170  56
-4.158250 -10.667254 -26.287693  149  181  85
-4.159426 -10.760440 -26.303032  151  183  87
-4.167075 -13.348586 -26.402798  145  151  155
-4.167075 -13.436583 -26.402798  139  145  150
-4.167075 -13.964562 -26.402798  100  123  99
-3.953507 11.769109 -22.633242  138  137  154
-3.953507 11.542815 -22.633242  50  47  94
-3.953507 11.467384 -22.633242  85  80  146
-3.953507 11.090227 -22.633242  69  65  125
-3.961899 8.191766 -22.738144  91  75  88
-3.961899 8.115985 -22.738144  94  79  91
-3.961899 8.040204 -22.738144  97  81  93
-3.961899 7.964424 -22.738144  95  79  91
-3.961899 7.888643 -22.738144  82  66  81
-3.961899 7.812862 -22.738144  83  66  82
-3.961899 7.737081 -22.738144  89  72  90
-3.961899 7.661300 -22.738144  95  78  96
-3.975635 7.575560 -22.909854  87  70  88
-4.016422 6.912415 -23.419686  108  88  103
-4.108270 7.146664 -24.567788  83  63  80
-4.108270 6.982905 -24.567788  102  81  99
-4.108270 6.082227 -24.567788  73  56  77
-4.108270 6.000347 -24.567788  80  63  84
-4.108270 5.918468 -24.567788  76  59  80
-4.092062 4.885259 -24.365182  76  59  77
-4.092062 4.235623 -24.365182  69  53  67
-4.092062 4.154419 -24.365182  55  38  52
-4.092062 3.910806 -24.365182  39  23  52
-4.092062 3.829601 -24.365182  118  107  132
-4.092062 3.342375 -24.365182  151  149  156
-4.229435 0.446565 -26.082344  151  148  152
-4.184449 -6.223251 -25.520017  186  165  181
-4.184052 -6.902574 -25.515056  173  168  167
-4.184052 -6.987612 -25.515056  177  165  161
-4.184052 -7.072649 -25.515056  173  161  157
-4.184052 -7.157686 -25.515056  174  153  145
-4.184052 -7.242724 -25.515056  171  149  141
-4.184052 -7.327761 -25.515056  176  147  133
-4.184052 -7.412798 -25.515056  174  144  131
-4.184052 -7.497836 -25.515056  174  138  119
-4.184052 -7.582873 -25.515056  166  130  112
-4.184052 -7.667910 -25.515056  159  120  96
-4.184052 -7.752948 -25.515056  148  109  85
-4.184052 -7.837985 -25.515056  140  99  73
-4.184052 -7.923022 -25.515056  134  94  68
-4.184052 -8.008060 -25.515056  133  89  43
-4.184052 -8.093097 -25.515056  125  81  36
-4.184052 -8.178134 -25.515056  120  72  19
-4.184052 -8.263172 -25.515056  116  69  16
-4.184052 -8.348209 -25.515056  122  66  19
-4.184052 -8.433246 -25.515056  122  66  18
-4.184052 -8.518284 -25.515056  122  61  1
-4.184052 -8.603321 -25.515056  117  57  0
-4.181323 -9.442664 -25.480942  155  154  189
-4.181323 -9.527588 -25.480942  156  160  175
-4.229706 -9.812094 -26.085738  153  157  171
-4.229706 -9.899034 -26.085738  145  155  142
-4.235465 -10.010210 -26.157728  140  150  137
-4.235463 -10.097380 -26.157700  139  154  122
-4.235461 -10.184551 -26.157674  142  157  124
-4.235461 -10.271727 -26.157667  146  161  126
-4.235461 -10.358907 -26.157667  142  157  123
-4.246071 -12.245381 -26.290304  150  158  161
-4.246070 -12.332997 -26.290290  150  158  161
-4.246070 -12.420618 -26.290290  148  155  184
-4.246070 -12.508240 -26.290290  145  152  180
-4.246070 -13.384454 -26.290290  147  151  164
-4.246070 -13.559697 -26.290290  75  87  108
-4.246070 -13.734940 -26.290290  140  162  166
-4.246070 -13.822562 -26.290290  141  163  146
-4.028938 11.467384 -22.633242  78  73  138
-4.028938 11.014796 -22.633242  62  58  122
-4.028938 10.939365 -22.633242  54  49  113
-4.029086 9.582448 -22.635019  21  18  64
-4.030746 9.365434 -22.654941  75  68  106
-4.030746 9.289930 -22.654941  90  83  121
-4.030746 9.214426 -22.654941  88  79  112
-4.030746 9.138923 -22.654941  84  75  107
-4.030746 8.836908 -22.654941  79  70  94
-4.030746 8.761405 -22.654941  85  77  98
-4.037680 8.722233 -22.738144  92  84  105
-4.037680 8.646452 -22.738144  89  81  102
-4.037680 8.570671 -22.738144  81  74  94
-4.037680 8.494890 -22.738144  77  60  80
-4.037680 8.419109 -22.738144  71  54  74
-4.037680 8.343328 -22.738144  57  40  56
-4.037680 8.267547 -22.738144  41  25  41
-4.037680 8.040204 -22.738144  37  21  33
-4.037680 7.964424 -22.738144  30  14  26
-4.037680 7.888643 -22.738144  45  29  44
-4.037680 7.812862 -22.738144  48  31  46
-4.037680 7.737081 -22.738144  55  38  56
-4.037680 7.661300 -22.738144  59  42  60
-4.037680 7.585519 -22.738144  48  31  50
-4.051989 7.575560 -22.909854  31  14  32
-4.051989 7.193793 -22.909854  34  13  32
-4.051989 7.117440 -22.909854  54  33  53
-4.051989 7.041087 -22.909854  62  41  59
-4.091929 7.135677 -23.389136  61  41  58
-4.092029 7.058150 -23.390334  66  46  62
-4.092129 6.980613 -23.391531  76  55  71
-4.094475 6.912415 -23.419686  74  54  69
-4.184605 7.205700 -24.501251  60  40  55
-4.181116 7.109807 -24.459385  55  35  52
-4.181116 7.028289 -24.459385  65  45  61
-4.181116 6.946770 -24.459385  69  48  67
-4.181116 6.865252 -24.459385  60  39  58
-4.181116 6.783733 -24.459385  52  32  51
-4.181116 6.702215 -24.459385  53  32  52
-4.181116 6.620697 -24.459385  78  61  82
-4.181116 6.539178 -24.459385  74  58  78
-4.181116 6.457660 -24.459385  64  47  67
-4.181116 6.376141 -24.459385  66  49  70
-4.181116 6.294623 -24.459385  79  62  83
-4.181116 6.213104 -24.459385  75  58  78
-4.181116 6.131586 -24.459385  64  47  68
-4.181116 6.050068 -24.459385  67  51  71
-4.181116 5.968549 -24.459385  73  56  76
-4.181116 5.887031 -24.459385  69  52  73
-4.181116 5.805512 -24.459385  61  44  65
-4.179822 4.741994 -24.443856  77  60  77
-4.179822 4.579061 -24.443856  84  67  83
-4.179822 4.416127 -24.443856  74  57  73
-4.179822 3.601461 -24.443856  204  199  216
-4.179822 3.519994 -24.443856  161  159  170
-4.179822 3.357061 -24.443856  153  151  157
-4.316363 0.968135 -26.082345  176  178  182
-4.316363 0.446565 -26.082345  155  151  155
-4.268701 -5.541185 -25.510397  170  176  176
-4.268701 -5.626207 -25.510397  166  176  178
-4.268701 -5.711229 -25.510397  169  179  181
-4.268701 -5.796250 -25.510397  168  171  181
-4.268701 -5.881272 -25.510397  166  169  180
-4.268701 -5.966294 -25.510397  172  161  179
-4.268701 -6.051316 -25.510397  168  158  176
-4.268701 -6.136338 -25.510397  170  149  164
-4.268701 -6.221359 -25.510397  162  141  156
-4.268701 -6.306381 -25.510397  156  134  136
-4.268701 -6.391403 -25.510397  148  126  127
-4.268701 -6.476425 -25.510397  140  121  110
-4.269089 -6.562425 -25.515056  136  117  106
-4.269089 -6.647462 -25.515056  114  114  115
-4.269089 -6.732500 -25.515056  110  110  110
-4.269089 -6.817537 -25.515056  107  103  102
-4.269089 -6.902574 -25.515056  103  98  97
-4.269089 -6.987612 -25.515056  104  91  87
-4.269089 -7.072649 -25.515056  97  84  80
-4.269089 -7.157686 -25.515056  96  75  66
-4.269089 -7.242724 -25.515056  91  70  62
-4.269089 -7.327761 -25.515056  89  59  46
-4.269089 -7.412798 -25.515056  89  60  47
-4.269089 -7.497836 -25.515056  95  60  41
-4.269089 -7.582873 -25.515056  96  60  42
-4.269089 -7.667910 -25.515056  98  59  36
-4.269089 -7.752948 -25.515056  97  58  35
-4.269089 -7.837985 -25.515056  97  56  30
-4.269089 -7.923022 -25.515056  95  55  29
-4.269089 -8.008060 -25.515056  106  62  17
-4.269089 -8.603321 -25.515056  125  64  4
-4.320433 -11.394732 -26.131187  158  160  172
-4.320433 -11.481823 -26.131187  159  162  170
-4.320433 -11.568914 -26.131187  159  161  170
-4.320433 -11.656006 -26.131187  156  159  160
-4.320433 -11.743097 -26.131187  156  159  160
-4.320433 -11.830188 -26.131187  151  157  154
-4.320433 -11.917279 -26.131187  145  151  148
-4.339845 -12.100654 -26.364132  138  145  145
-4.339845 -12.188521 -26.364132  133  140  140
-4.339845 -12.276389 -26.364132  126  135  138
-4.339845 -12.364257 -26.364132  122  130  133
-4.339845 -12.452124 -26.364132  110  117  146
-4.339845 -13.770138 -26.364132  139  161  166
-4.339845 -13.858006 -26.364132  136  158  141
-4.339845 -13.945873 -26.364132  106  127  111
-4.339845 -14.121608 -26.364132  115  130  116
-4.104369 11.693678 -22.633242  121  129  135
-4.104369 11.618246 -22.633242  54  61  101
-4.104369 11.241090 -22.633242  62  66  136
-4.104369 11.165659 -22.633242  56  59  125
-4.104369 11.014796 -22.633242  66  67  133
-4.104369 10.939365 -22.633242  63  64  130
-4.104369 10.863933 -22.633242  75  75  150
-4.104369 10.788502 -22.633242  75  74  149
-4.104369 10.260483 -22.633242  19  17  86
