ply
format ascii 1.0
element face 0
property list uint8 int32 vertex_indices
element vertex 1067
property float x
property float y
property float z
property uchar diffuse_red 
property uchar diffuse_green 
property uchar diffuse_blue 
end_header
-6.328504 -10.256215 -24.515750  84  107  46
-6.328504 -10.337617 -24.515750  83  106  48
-6.328504 -10.419019 -24.515750  81  104  46
-6.328504 -10.500421 -24.515750  78  102  44
-6.328504 -10.581823 -24.515750  77  101  42
-6.328504 -10.663225 -24.515750  77  102  39
-6.328504 -10.744627 -24.515750  78  103  40
-6.328504 -10.826029 -24.515750  78  105  38
-6.328504 -10.907431 -24.515750  79  105  38
-6.348852 -12.180929 -24.837036  94  118  52
-6.348854 -12.263416 -24.837071  124  144  85
-6.348855 -13.005682 -24.837088  93  98  105
-6.348855 -13.088155 -24.837088  55  70  59
-6.348855 -13.170628 -24.837088  66  81  70
-6.348855 -13.253101 -24.837088  94  113  102
-6.348855 -13.335574 -24.837088  115  134  123
-6.348855 -13.418048 -24.837088  104  119  116
-6.348855 -13.500521 -24.837088  105  120  116
-6.514622 -19.746562 -27.454463  138  142  166
-6.386567 9.040163 -24.165670  75  24  23
-6.386567 8.959928 -24.165670  73  22  22
-6.386567 8.799457 -24.165670  82  33  34
-6.413575 4.736616 -24.570793  19  9  2
-6.436622 4.747217 -24.916491  44  23  19
-6.446481 4.703422 -25.064375  63  42  38
-6.446481 4.620193 -25.064382  90  66  65
-6.446481 4.536962 -25.064382  106  83  81
-6.446481 3.704655 -25.064382  71  38  49
-6.446481 3.621424 -25.064382  58  26  38
-6.446481 3.538193 -25.064382  98  67  78
-6.446481 3.371731 -25.064382  250  225  231
-6.446481 3.288501 -25.064382  233  227  239
-6.446481 3.205270 -25.064382  183  178  189
-6.446481 2.955577 -25.064382  176  175  174
-6.709934 0.827489 -29.016182  185  183  190
-6.389000 -5.889644 -24.202161  136  113  105
-6.389000 -5.970000 -24.202161  111  88  80
-6.389000 -6.050357 -24.202161  114  70  38
-6.389000 -6.130714 -24.202161  112  68  36
-6.406042 -8.124887 -24.457793  136  57  0
-6.406042 -8.206096 -24.457793  142  68  7
-6.406042 -8.287305 -24.457793  152  78  17
-6.406042 -8.368514 -24.457793  172  128  79
-6.406226 -8.775342 -24.460560  157  144  175
-6.432386 -13.012824 -24.852960  111  114  123
-6.432386 -13.095350 -24.852960  95  108  104
-6.432386 -13.260403 -24.852960  84  101  100
-6.432386 -13.590507 -24.852960  120  128  137
-6.432386 -13.673033 -24.852960  163  171  179
-6.605820 -19.746562 -27.454463  150  152  172
-6.453589 14.845433 -23.976919  123  83  77
-6.453589 14.765827 -23.976919  132  92  85
-6.453589 14.686221 -23.976919  118  100  107
-6.453589 14.606615 -23.976919  125  107  114
-6.453589 14.527009 -23.976919  136  119  123
-6.453589 14.447403 -23.976919  146  129  133
-6.453589 14.367797 -23.976919  151  134  136
-6.453589 14.288191 -23.976919  152  136  138
-6.453589 14.208585 -23.976919  156  139  142
-6.458662 14.177533 -24.049387  161  144  147
-6.459282 14.103593 -24.058247  170  153  159
-6.459286 14.023751 -24.058301  172  154  161
-6.459292 13.943930 -24.058385  174  157  164
-6.458305 13.854791 -24.044282  176  159  166
-6.458305 13.774960 -24.044282  179  162  167
-6.458305 13.695130 -24.044282  185  168  174
-6.458305 13.615300 -24.044282  193  177  179
-6.458305 13.535469 -24.044282  199  182  185
-6.458305 13.455639 -24.044282  188  161  173
-6.458305 13.375808 -24.044282  191  165  176
-6.458305 13.295978 -24.044282  193  167  177
-6.458305 13.216147 -24.044282  192  166  176
-6.458305 13.136317 -24.044282  192  166  173
-6.462862 9.094692 -24.109381  68  19  18
-6.462862 9.014645 -24.109381  75  24  23
-6.462862 8.934597 -24.109381  83  32  32
-6.462862 8.854550 -24.109381  74  25  26
-6.462862 8.774502 -24.109381  64  15  16
-6.495161 4.981373 -24.570793  24  14  8
-6.495161 4.899787 -24.570793  25  15  9
-6.495161 4.818202 -24.570793  34  24  17
-6.495161 4.736616 -24.570793  44  35  27
-6.519359 4.747217 -24.916491  89  68  64
-6.529711 4.703422 -25.064375  102  81  77
-6.538838 3.566441 -25.194758  96  64  76
-6.538838 3.482776 -25.194758  177  151  158
-6.538838 3.399110 -25.194758  255  232  239
-6.538838 3.231780 -25.194758  190  185  196
-6.538838 2.980784 -25.194758  168  168  166
-6.813241 0.836693 -29.114797  187  186  193
-6.813241 0.739960 -29.114797  169  167  174
-6.469356 -5.809287 -24.202161  118  108  128
-6.469356 -5.889644 -24.202161  107  84  76
-6.469356 -5.970000 -24.202161  100  76  68
-6.488496 -8.291990 -24.475583  138  64  3
-6.488496 -8.373258 -24.475583  120  76  27
-6.488496 -8.454526 -24.475583  151  107  58
-6.488633 -8.780152 -24.477536  165  151  183
-6.522056 -13.058747 -24.955011  130  133  142
-6.522056 -13.141613 -24.955011  103  116  113
-6.522056 -13.224480 -24.955011  117  130  126
-6.522056 -13.307346 -24.955011  99  115  115
-6.522056 -13.390212 -24.955011  74  90  90
-6.522056 -13.473078 -24.955011  67  80  87
-6.522056 -13.555945 -24.955011  78  91  98
-6.522056 -13.638811 -24.955011  114  122  130
-6.522056 -13.721677 -24.955011  146  155  163
-6.533195 14.925039 -23.976919  137  99  94
-6.538510 14.177533 -24.049387  80  35  16
-6.539159 14.103593 -24.058247  79  34  18
-6.539163 14.023751 -24.058301  81  35  19
-6.539170 13.943930 -24.058385  83  37  22
-6.538135 13.854791 -24.044282  86  40  25
-6.538135 13.774960 -24.044282  90  44  27
-6.538135 13.695130 -24.044282  95  50  33
-6.538135 13.615300 -24.044282  102  57  37
-6.538135 13.535469 -24.044282  107  62  42
-6.538135 13.455639 -24.044282  109  79  67
-6.538135 13.375808 -24.044282  114  85  72
-6.538135 13.295978 -24.044282  120  91  78
-6.538135 13.216147 -24.044282  126  97  84
-6.538135 13.136317 -24.044282  135  106  92
-6.538135 13.056486 -24.044282  145  116  102
-6.538135 12.976656 -24.044282  151  122  107
-6.538135 12.896825 -24.044282  152  123  108
-6.538135 12.816995 -24.044282  163  134  120
-6.538135 12.737165 -24.044282  167  138  123
-6.538135 12.657334 -24.044282  172  143  129
-6.538135 12.577504 -24.044282  178  149  135
-6.538135 12.497673 -24.044282  183  153  140
-6.538135 12.417843 -24.044282  186  157  144
-6.538135 12.338012 -24.044282  191  162  149
-6.538135 12.258182 -24.044282  195  166  154
-6.538135 12.178351 -24.044282  193  169  159
-6.538135 12.098521 -24.044282  193  169  159
-6.538135 12.018691 -24.044282  191  166  157
-6.538135 11.938860 -24.044282  185  161  152
-6.538135 11.859030 -24.044282  179  155  148
-6.538135 11.779199 -24.044282  175  150  143
-6.538135 11.699369 -24.044282  172  147  142
-6.538135 11.619538 -24.044282  170  145  140
-6.538135 11.539708 -24.044282  183  157  155
-6.539290 11.468645 -24.060032  186  160  158
-6.539290 11.388762 -24.060032  189  163  164
-6.539290 11.308879 -24.060032  191  165  166
-6.539290 11.228996 -24.060032  193  166  169
-6.539290 11.149113 -24.060032  194  167  170
-6.539290 11.069230 -24.060032  194  167  171
-6.539290 10.989347 -24.060032  193  167  170
-6.539290 10.909464 -24.060032  202  175  195
-6.543268 10.858326 -24.114267  200  173  193
-6.543015 10.776445 -24.110817  199  172  191
-6.542783 10.694738 -24.107655  201  174  193
-6.542781 10.614688 -24.107639  204  177  195
-6.576746 5.144544 -24.570793  45  6  7
-6.576746 5.062958 -24.570793  46  7  8
-6.576746 4.981373 -24.570793  46  7  7
-6.576746 4.899787 -24.570793  49  9  9
-6.623779 4.742336 -25.212151  83  49  51
-6.623779 4.658613 -25.212151  92  58  61
-6.623779 4.574890 -25.212152  92  58  62
-6.623781 4.491173 -25.212176  86  51  56
-6.623780 3.570212 -25.212164  74  43  58
-6.623780 3.486489 -25.212164  155  120  133
-6.623780 3.402766 -25.212164  254  220  233
-6.623780 3.235319 -25.212164  201  189  206
-6.623780 2.984149 -25.212164  171  169  170
-6.916552 0.845066 -29.204509  189  187  195
-6.916552 0.748035 -29.204509  170  168  177
-6.554473 -5.819889 -24.267069  134  79  71
-6.554473 -5.900462 -24.267069  133  69  32
-6.574188 -8.470815 -24.535913  151  80  0
-6.574188 -8.552284 -24.535913  164  107  65
-6.609738 -13.171384 -25.020682  141  152  157
-6.609738 -13.254469 -25.020682  151  163  167
-6.609738 -13.337554 -25.020682  140  156  161
-6.609738 -13.420640 -25.020682  123  139  144
-6.609738 -13.503725 -25.020682  118  131  140
-6.609738 -13.586810 -25.020682  132  145  153
-6.609738 -13.669895 -25.020682  159  168  174
-6.788215 -19.928957 -27.454463  98  96  126
-6.612801 14.925039 -23.976919  196  159  154
-6.612801 14.845433 -23.976919  202  163  162
-6.612801 14.765827 -23.976919  206  168  166
-6.612801 14.686221 -23.976919  211  165  149
-6.612801 14.606615 -23.976919  206  160  145
-6.612801 14.527009 -23.976919  204  159  141
-6.612801 14.447403 -23.976919  209  163  145
-6.612801 14.367797 -23.976919  212  167  147
-6.612801 14.288191 -23.976919  208  163  143
-6.612801 14.208585 -23.976919  199  154  135
-6.618357 14.177533 -24.049387  193  147  129
-6.619036 14.103593 -24.058247  194  148  132
-6.619041 14.023751 -24.058301  192  146  130
-6.619047 13.943930 -24.058385  187  142  127
-6.617966 13.854791 -24.044282  182  136  121
-6.617966 13.774960 -24.044282  176  130  113
-6.617966 13.695130 -24.044282  169  124  107
-6.617966 13.615300 -24.044282  163  118  99
-6.617966 13.535469 -24.044282  160  115  95
-6.617966 13.455639 -24.044282  135  106  93
-6.617966 13.375808 -24.044282  132  102  90
-6.617966 13.295978 -24.044282  123  94  81
-6.617966 13.216147 -24.044282  113  84  71
-6.617966 13.136317 -24.044282  106  77  62
-6.617966 12.577504 -24.044282  67  38  24
-6.617966 12.497673 -24.044282  70  41  28
-6.617966 12.417843 -24.044282  70  40  27
-6.617966 12.338012 -24.044282  64  35  22
-6.617966 12.258182 -24.044282  59  30  18
-6.617966 12.178351 -24.044282  68  43  33
-6.617966 12.098521 -24.044282  76  52  41
-6.617966 12.018691 -24.044282  84  60  50
-6.617966 11.938860 -24.044282  86  62  53
-6.617966 11.859030 -24.044282  85  60  53
-6.617966 11.779199 -24.044282  86  61  54
-6.617966 11.699369 -24.044282  89  64  59
-6.617966 11.619538 -24.044282  92  67  63
-6.617966 11.539708 -24.044282  96  70  68
-6.619173 11.468645 -24.060032  100  75  73
-6.619173 11.388762 -24.060032  106  80  81
-6.619173 11.308879 -24.060032  112  86  87
-6.619173 11.228996 -24.060032  119  93  95
-6.619173 11.149113 -24.060032  126  100  102
-6.619173 11.069230 -24.060032  131  105  109
-6.619173 10.989347 -24.060032  134  107  111
-6.626522 10.960587 -24.155887  138  110  131
-6.631759 10.916591 -24.224200  137  109  130
-6.631175 10.832143 -24.216573  137  110  129
-6.630952 10.750219 -24.213668  139  112  131
-6.630841 10.669069 -24.212217  140  113  131
-6.630841 10.588679 -24.212217  139  112  130
-6.630841 10.508288 -24.212217  136  109  125
-6.630841 10.427898 -24.212217  134  107  123
-6.630841 10.347508 -24.212217  140  113  126
-6.630841 10.267118 -24.212217  142  115  129
-6.630841 10.186728 -24.212217  147  121  132
-6.630841 10.106337 -24.212217  154  128  139
-6.630841 10.025947 -24.212217  161  135  145
-6.630841 9.945557 -24.212217  167  142  151
-6.630841 9.865167 -24.212217  174  148  156
-6.630841 9.784776 -24.212217  178  152  161
-6.630841 9.704386 -24.212217  186  153  156
-6.630841 9.623996 -24.212217  186  154  157
-6.630841 9.543606 -24.212217  181  150  152
-6.630841 9.141654 -24.212217  65  33  32
-6.630841 9.061264 -24.212217  73  39  38
-6.658332 5.144544 -24.570793  71  31  32
-6.658332 4.818202 -24.570793  71  31  31
-6.658332 4.736616 -24.570793  67  27  27
-6.707498 4.826046 -25.212100  55  22  24
-6.711260 4.168036 -25.261164  68  34  44
-6.711260 4.084150 -25.261164  72  38  48
-6.711260 3.580829 -25.261165  53  21  37
-6.711260 3.496943 -25.261165  127  92  106
-6.711260 3.413056 -25.261165  244  209  223
-6.711260 3.245282 -25.261165  214  201  218
-6.711260 3.161396 -25.261165  165  167  179
-6.711260 2.993622 -25.261165  162  160  160
-7.027334 0.178402 -29.383868  176  172  176
-6.641821 -5.834322 -24.355437  125  70  62
-6.655515 -8.551778 -24.534061  132  75  33
-6.655756 -8.634109 -24.537198  166  108  67
-6.656997 -8.883171 -24.553388  143  156  116
-6.704054 -12.569203 -25.167166  154  168  118
-6.879413 -19.837759 -27.454463  147  150  166
-6.692407 14.925039 -23.976919  182  146  146
-6.698205 14.177533 -24.049387  183  153  151
-6.698913 14.103593 -24.058247  187  157  157
-6.698918 14.023751 -24.058301  186  156  157
-6.698924 13.943930 -24.058385  185  156  157
-6.697796 13.854791 -24.044282  185  155  157
-6.697796 13.774960 -24.044282  185  156  155
-6.697796 13.695130 -24.044282  187  157  156
-6.697796 13.615300 -24.044282  188  159  156
-6.697796 13.535469 -24.044282  189  160  157
-6.697796 13.455639 -24.044282  203  153  153
-6.697796 13.375808 -24.044282  204  154  154
-6.697796 13.295978 -24.044282  205  155  155
-6.697796 13.216147 -24.044282  204  154  154
-6.697796 13.136317 -24.044282  202  152  153
-6.697796 13.056486 -24.044282  201  151  152
-6.697796 12.976656 -24.044282  201  151  153
-6.697796 12.896825 -24.044282  202  152  154
-6.697796 12.816995 -24.044282  203  153  155
-6.697796 12.737165 -24.044282  201  151  153
-6.697796 12.657334 -24.044282  200  150  151
-6.697796 12.577504 -24.044282  200  150  151
-6.697796 12.497673 -24.044282  195  145  146
-6.697796 12.417843 -24.044282  187  137  138
-6.697796 12.338012 -24.044282  183  133  133
-6.697796 12.258182 -24.044282  183  133  133
-6.697796 12.178351 -24.044282  170  127  115
-6.697796 12.098521 -24.044282  168  125  113
-6.697796 12.018691 -24.044282  161  119  109
-6.697796 11.938860 -24.044282  148  106  96
-6.697796 11.859030 -24.044282  131  88  82
-6.697796 11.779199 -24.044282  115  72  66
-6.697796 11.699369 -24.044282  104  59  60
-6.697796 11.619538 -24.044282  99  54  55
-6.697796 11.539708 -24.044282  91  45  52
-6.699056 11.468645 -24.060032  88  42  49
-6.699056 11.388762 -24.060032  82  36  48
-6.699056 11.308879 -24.060032  76  30  43
-6.699056 11.228996 -24.060032  73  26  43
-6.699056 11.149113 -24.060032  73  26  43
-6.699056 11.069230 -24.060032  75  27  47
-6.699056 10.989347 -24.060032  77  29  49
-6.711917 10.995204 -24.220793  72  36  21
-6.711917 10.914785 -24.220793  69  33  18
-6.711917 10.351853 -24.220793  90  50  63
-6.711917 10.271434 -24.220793  84  44  57
-6.711917 10.191016 -24.220793  79  38  60
-6.711917 10.110597 -24.220793  79  38  59
-6.711917 10.030178 -24.220793  81  38  67
-6.711917 9.949759 -24.220793  82  39  67
-6.711917 9.869340 -24.220793  80  37  69
-6.711917 9.788921 -24.220793  79  36  68
-6.711917 9.708503 -24.220793  80  45  74
-6.711917 9.628084 -24.220793  86  51  80
-6.711917 9.547665 -24.220793  93  62  90
-6.711917 9.467246 -24.220793  104  72  100
-6.711917 9.386827 -24.220793  110  81  109
-6.711917 9.306408 -24.220793  114  85  113
-6.711917 9.145571 -24.220793  123  94  122
-6.707507 7.595931 -24.165670  59  28  38
-6.707507 7.515696 -24.165670  57  26  35
-6.707507 7.435461 -24.165670  54  23  31
-6.707507 7.355226 -24.165670  51  20  28
-6.707507 7.274991 -24.165670  47  16  24
-6.739917 5.062958 -24.570793  84  30  34
-6.796475 3.500483 -25.277761  104  60  74
-6.796475 3.416541 -25.277761  240  196  210
-6.796475 3.332599 -25.277761  255  236  253
-6.796475 3.248657 -25.277761  220  199  216
-6.796475 3.164715 -25.277761  170  167  178
-6.796475 2.912889 -25.277761  190  185  183
-7.131951 0.184517 -29.471217  168  164  171
-6.715438 -5.577822 -24.264800  163  152  159
-6.716271 -5.740620 -24.275221  142  65  39
-6.719191 -6.150069 -24.311716  155  63  0
-6.737911 -8.636467 -24.545722  159  83  3
-6.792608 -13.014672 -25.229425  159  155  175
-6.970611 -19.837759 -27.454463  149  154  168
-6.772013 14.845433 -23.976919  182  145  149
-6.777627 12.896825 -24.044282  201  151  153
-6.777627 12.816995 -24.044282  201  151  153
-6.777627 12.737165 -24.044282  201  150  153
-6.777627 12.657334 -24.044282  203  153  154
-6.777627 12.577504 -24.044282  207  157  158
-6.777627 12.497673 -24.044282  207  157  158
-6.777627 12.417843 -24.044282  205  155  156
-6.777627 12.338012 -24.044282  206  156  156
-6.777627 12.258182 -24.044282  208  158  158
-6.777627 12.178351 -24.044282  204  161  149
-6.777627 12.098521 -24.044282  204  161  149
-6.777627 12.018691 -24.044282  202  159  149
-6.777627 11.938860 -24.044282  197  154  144
-6.777627 11.859030 -24.044282  189  146  141
-6.777627 11.779199 -24.044282  182  139  133
-6.777627 11.699369 -24.044282  177  133  133
-6.777627 11.619538 -24.044282  175  131  131
-6.777627 11.539708 -24.044282  176  131  138
-6.778939 11.468645 -24.060032  177  131  138
-6.778939 11.388762 -24.060032  177  130  143
-6.778939 11.308879 -24.060032  174  128  140
-6.778939 11.228996 -24.060032  169  122  139
-6.778939 11.149113 -24.060032  163  116  133
-6.778939 11.069230 -24.060032  157  110  129
-6.778939 10.989347 -24.060032  154  107  126
-6.792336 10.995204 -24.220793  137  101  86
-6.792336 10.914785 -24.220793  135  100  84
-6.792336 10.834366 -24.220793  132  96  85
-6.792336 10.753947 -24.220793  128  92  81
-6.792336 10.673528 -24.220793  120  83  78
-6.792336 10.593110 -24.220793  109  71  66
-6.792336 10.512691 -24.220793  98  59  63
-6.792336 10.432272 -24.220793  92  53  57
-6.792336 10.351853 -24.220793  85  45  58
-6.792336 10.271434 -24.220793  81  41  54
-6.792336 10.191016 -24.220793  79  37  59
-6.792336 10.110597 -24.220793  79  38  59
-6.792336 10.030178 -24.220793  80  38  66
-6.792336 9.949759 -24.220793  79  36  65
-6.792336 9.869340 -24.220793  75  32  64
-6.792336 9.788921 -24.220793  73  30  62
-6.792336 9.708503 -24.220793  72  38  66
-6.792336 9.628084 -24.220793  66  32  60
-6.792336 9.547665 -24.220793  68  36  64
-6.792336 9.467246 -24.220793  75  43  71
-6.792336 9.145571 -24.220793  74  45  73
-6.792336 9.065152 -24.220793  74  41  70
-6.891159 3.612355 -25.406667  65  8  2
-6.891159 3.527983 -25.406667  89  44  58
-6.891159 3.443611 -25.406667  225  180  194
-6.891159 3.359240 -25.406667  254  233  250
-6.891159 3.274868 -25.406667  231  210  227
-6.891159 3.190496 -25.406667  186  183  194
-6.891159 3.106124 -25.406667  148  144  155
-6.891159 2.937381 -25.406667  186  181  179
-7.237105 0.190594 -29.558028  162  158  166
-6.795689 -5.577244 -24.261036  155  144  151
-6.796683 -5.740258 -24.272956  146  68  42
-6.823669 -8.650596 -24.596791  141  66  0
-6.878508 -12.522755 -25.254864  107  147  31
-6.878504 -13.193659 -25.254816  143  144  165
-6.878504 -13.277525 -25.254816  153  165  174
-6.878504 -13.361390 -25.254816  159  170  179
-6.878504 -13.445256 -25.254816  164  181  186
-6.878504 -13.529122 -25.254816  154  172  176
-6.878504 -13.612987 -25.254816  142  158  158
-6.878504 -13.696853 -25.254816  145  161  161
-7.061808 -19.928957 -27.454463  129  129  160
-6.857900 14.177533 -24.049387  182  147  144
-6.858667 14.103593 -24.058247  183  148  148
-6.858672 14.023751 -24.058301  183  149  148
-6.858679 13.943930 -24.058385  183  148  149
-6.857457 13.695130 -24.044282  179  145  144
-6.857457 13.615300 -24.044282  182  148  144
-6.857457 13.535469 -24.044282  184  150  147
-6.857457 13.455639 -24.044282  180  151  145
-6.857457 13.375808 -24.044282  179  150  145
-6.857457 13.295978 -24.044282  177  148  145
-6.857457 13.216147 -24.044282  176  147  143
-6.857457 13.136317 -24.044282  176  146  145
-6.857457 13.056486 -24.044282  177  147  147
-6.857457 12.896825 -24.044282  182  152  153
-6.857457 12.816995 -24.044282  181  151  152
-6.857457 12.737165 -24.044282  180  150  151
-6.857457 12.657334 -24.044282  179  150  149
-6.857457 12.577504 -24.044282  179  149  148
-6.857457 12.497673 -24.044282  176  146  143
-6.857457 12.417843 -24.044282  172  143  140
-6.857457 12.338012 -24.044282  172  143  138
-6.857457 12.258182 -24.044282  174  145  140
-6.857457 12.178351 -24.044282  183  148  132
-6.857457 11.779199 -24.044282  189  153  144
-6.857457 11.699369 -24.044282  190  153  150
-6.857457 11.619538 -24.044282  190  153  150
-6.857457 11.539708 -24.044282  195  156  160
-6.858822 11.468645 -24.060032  196  157  161
-6.858822 11.388762 -24.060032  197  157  167
-6.881971 10.809600 -24.327137  187  154  173
-6.881971 10.728827 -24.327137  184  152  168
-6.881971 10.648054 -24.327137  178  146  162
-6.881971 10.567280 -24.327137  172  140  153
-6.881971 10.486507 -24.327137  169  136  150
-6.881971 10.405734 -24.327137  166  134  145
-6.881971 10.324960 -24.327137  161  129  140
-6.881971 10.244187 -24.327137  155  124  131
-6.881971 10.163414 -24.327137  150  119  126
-6.881971 10.082641 -24.327137  144  114  119
-6.881971 10.001867 -24.327137  137  106  112
-6.881971 9.921094 -24.327137  129  98  103
-6.881971 9.840321 -24.327137  124  94  98
-6.881971 9.759547 -24.327137  136  87  109
-6.881971 9.678774 -24.327137  133  85  107
-6.881971 9.598001 -24.327137  137  94  117
-6.881971 9.355681 -24.327137  116  77  103
-6.881971 9.274907 -24.327137  117  79  108
-6.987041 3.556317 -25.539485  97  46  56
-6.987041 3.471503 -25.539485  222  170  181
-6.987041 3.386689 -25.539485  255  230  243
-6.987041 3.217060 -25.539485  195  188  196
-6.987041 3.132245 -25.539485  152  146  153
-6.987041 2.962616 -25.539485  180  174  170
-7.342790 0.689117 -29.644281  169  166  178
-7.342790 0.196631 -29.644281  160  156  165
-6.876242 -5.577244 -24.261036  149  136  142
-6.877276 -5.740258 -24.272956  141  71  47
-6.906894 -8.819018 -24.614712  194  129  52
-6.906894 -8.982482 -24.614712  164  133  100
-6.967495 -12.547767 -25.313947  97  136  18
-6.967492 -12.631814 -25.313910  136  152  86
-6.967490 -13.136184 -25.313898  125  127  149
-6.967490 -13.220246 -25.313898  82  84  106
-6.967490 -13.556496 -25.313898  140  161  160
-7.153006 -20.202550 -27.454463  15  9  50
-6.937288 13.615300 -24.044282  181  147  143
-6.937288 13.535469 -24.044282  184  150  146
-6.937288 13.455639 -24.044282  176  147  142
-6.937288 13.375808 -24.044282  175  146  141
-6.937288 13.295978 -24.044282  174  145  141
-6.937288 13.216147 -24.044282  174  145  141
-6.937288 13.136317 -24.044282  175  145  144
-6.937288 13.056486 -24.044282  176  146  146
-6.937288 12.896825 -24.044282  179  148  150
-6.937288 12.816995 -24.044282  181  150  152
-6.937288 12.737165 -24.044282  181  151  152
-6.937288 12.657334 -24.044282  181  151  151
-6.937288 12.577504 -24.044282  180  150  149
-6.937288 12.497673 -24.044282  178  148  145
-6.937288 12.417843 -24.044282  177  147  144
-6.937288 12.018691 -24.044282  181  146  133
-6.937288 11.938860 -24.044282  183  148  135
-6.937288 11.859030 -24.044282  187  150  142
-7.035700 9.731265 -25.137750  58  20  45
-7.035700 9.647790 -25.137750  64  26  55
-6.952742 6.490086 -24.215996  74  21  40
-6.992051 6.559640 -24.652762  72  18  38
-6.993322 6.482582 -24.666882  71  17  35
-6.984674 4.899787 -24.570793  100  50  81
-6.984674 4.818202 -24.570793  100  50  81
-7.085949 4.357751 -25.696075  105  71  93
-7.085947 3.589720 -25.696057  97  45  56
-7.085947 3.504383 -25.696057  208  156  167
-7.085947 3.419047 -25.696057  250  224  238
-7.085947 3.248374 -25.696057  196  190  198
-7.085947 3.163038 -25.696057  149  143  150
-7.085947 2.992365 -25.696057  172  166  162
-7.441288 0.196632 -29.644285  157  152  161
-6.956795 -5.577244 -24.261036  143  130  136
-6.957868 -5.740258 -24.272956  139  70  45
-6.957868 -5.820850 -24.272956  137  68  44
-6.993591 -8.834647 -24.669871  171  105  28
-6.993591 -8.998478 -24.669871  163  132  99
-6.993591 -9.080394 -24.669871  111  125  81
-7.065366 -12.612719 -25.467377  90  129  11
-7.065367 -12.697299 -25.467390  134  150  84
-7.065372 -13.289341 -25.467442  106  109  130
-7.244204 -19.928957 -27.454463  142  143  175
-7.244204 -20.020155 -27.454463  96  97  129
-7.244204 -20.202550 -27.454463  15  8  49
-7.018421 14.103593 -24.058247  185  148  147
-7.017118 13.615300 -24.044282  183  147  142
-7.017118 13.535469 -24.044282  185  150  145
-7.017118 13.455639 -24.044282  181  147  148
-7.017118 13.375808 -24.044282  181  147  148
-7.017118 13.295978 -24.044282  181  146  151
-7.017118 13.216147 -24.044282  182  148  152
-7.017118 13.136317 -24.044282  184  148  157
-7.017118 12.657334 -24.044282  181  146  154
-7.017118 12.577504 -24.044282  180  144  153
-7.017118 12.338012 -24.044282  183  149  150
-7.017118 12.258182 -24.044282  186  152  153
-7.085268 11.866344 -24.774461  173  151  145
-7.086013 11.788497 -24.782445  175  152  148
-7.086397 11.708470 -24.786561  175  153  149
-7.094774 11.510023 -24.876315  172  150  147
-7.095666 11.432545 -24.885866  172  149  147
-7.095666 9.531923 -24.885866  45  33  32
-7.188130 3.628226 -25.876557  85  31  38
-7.188130 3.542288 -25.876557  187  133  140
-7.188130 3.456350 -25.876557  245  218  228
-7.188130 3.284474 -25.876557  210  205  209
-7.188130 3.198536 -25.876557  158  152  157
-7.188130 3.026660 -25.876557  169  165  160
-7.527896 0.678077 -29.516903  177  174  185
-7.014755 -5.540127 -24.018963  139  125  130
-7.084722 -8.780378 -24.768611  142  59  0
-7.084722 -8.862623 -24.768611  166  83  12
-7.084722 -8.944868 -24.768611  178  125  87
-7.084722 -9.027113 -24.768611  186  133  95
-7.084722 -9.109358 -24.768611  128  124  77
-7.159891 -12.657853 -25.573992  87  125  10
-7.159891 -12.742780 -25.573987  118  139  53
-7.159890 -12.827708 -25.573983  146  167  81
-7.335402 -19.928957 -27.454463  145  144  175
-7.335402 -20.020155 -27.454463  106  105  136
-7.335402 -20.202550 -27.454463  20  11  56
-7.096948 13.375808 -24.044282  183  148  150
-7.096948 13.295978 -24.044282  183  148  152
-7.096948 13.216147 -24.044282  185  150  154
-7.096948 13.136317 -24.044282  187  151  160
-7.096948 12.657334 -24.044282  190  155  164
-7.096948 12.577504 -24.044282  185  149  158
-7.096948 12.497673 -24.044282  179  144  148
-7.096948 12.417843 -24.044282  177  142  146
-7.096948 12.338012 -24.044282  178  144  145
-7.096948 12.018691 -24.044282  174  152  142
-7.096948 11.938860 -24.044282  172  151  141
-7.173776 11.654860 -24.839050  174  152  148
-7.173895 11.573047 -24.840278  174  151  148
-7.113547 6.650892 -24.215996  92  46  66
-7.113547 6.570489 -24.215996  94  48  68
-7.113547 6.490086 -24.215996  95  48  68
-7.155768 6.559640 -24.652762  97  51  70
-7.157133 6.482582 -24.666882  101  53  72
-7.158126 6.404133 -24.677150  103  55  74
-7.158126 6.322193 -24.677150  104  55  73
-7.158126 6.240253 -24.677150  102  53  72
-7.158126 6.158313 -24.677150  100  51  70
-7.158126 6.076373 -24.677150  99  50  68
-7.158126 5.994433 -24.677150  110  63  51
-7.158126 5.912493 -24.677150  110  63  52
-7.158126 5.830553 -24.677150  111  64  53
-7.147844 5.715642 -24.570793  111  63  52
-7.147844 5.634057 -24.570793  108  59  48
-7.147844 5.144544 -24.570793  112  56  49
-7.147844 5.062958 -24.570793  114  58  50
-7.147844 4.981373 -24.570793  116  59  52
-7.147844 4.818202 -24.570793  117  59  52
-7.147844 4.736616 -24.570793  117  59  52
-7.209838 4.826046 -25.212100  128  58  71
-7.209842 4.742336 -25.212151  131  61  74
-7.283224 4.597223 -25.971269  112  51  60
-7.283224 4.510968 -25.971267  101  43  49
-7.283224 4.424715 -25.971267  99  41  47
-7.283224 4.338462 -25.971272  104  47  51
-7.283225 4.252210 -25.971277  100  43  47
-7.283225 3.648433 -25.971277  77  23  29
-7.283225 3.562179 -25.971277  162  108  114
-7.283225 3.475926 -25.971277  226  199  209
-7.283225 3.389672 -25.971277  253  226  235
-7.283225 3.303418 -25.971277  208  203  207
-7.625968 0.089642 -29.516903  171  166  176
-7.189664 -9.178233 -25.003413  133  129  82
-7.260400 -12.897016 -25.735165  150  171  85
-7.426599 -20.020155 -27.454463  115  115  145
-7.176779 12.497673 -24.044282  179  147  138
-7.176779 12.417843 -24.044282  179  147  138
-7.176779 12.338012 -24.044282  181  149  137
-7.259780 11.674126 -24.874294  176  142  132
-7.259780 11.591529 -24.874294  176  142  132
-7.193572 8.498533 -24.212217  51  24  39
-7.193572 8.418142 -24.212217  64  41  56
-7.193572 8.337752 -24.212217  68  45  61
-7.183233 8.213936 -24.108823  76  52  68
-7.183233 8.133891 -24.108823  81  57  74
-7.188918 8.077342 -24.165670  84  58  77
-7.188918 7.997107 -24.165670  84  59  77
-7.188918 7.916872 -24.165670  86  59  80
-7.188918 7.836636 -24.165670  88  61  82
-7.188918 7.756401 -24.165670  92  63  88
-7.188918 7.676166 -24.165670  90  61  86
-7.293566 4.742336 -25.212151  103  59  88
-7.293566 4.658613 -25.212151  113  73  101
-7.300119 4.591710 -25.277684  116  76  104
-7.360014 4.659501 -25.876631  109  74  101
-7.369478 4.597223 -25.971269  103  68  94
-7.377470 4.530683 -26.051191  92  59  85
-7.377470 4.444163 -26.051191  89  57  83
-7.377471 4.357644 -26.051198  92  59  86
-7.377471 4.271124 -26.051198  91  58  85
-7.377471 4.184604 -26.051198  97  59  88
-7.377471 4.098084 -26.051198  103  66  95
-7.377471 4.011564 -26.051198  111  67  99
-7.377471 3.925044 -26.051198  109  66  97
-7.377471 3.838523 -26.051198  109  62  95
-7.724041 0.089642 -29.516903  169  164  171
-7.272692 -7.849792 -25.003413  143  64  0
-7.278306 -7.946481 -25.059555  145  65  0
-7.278306 -8.029696 -25.059555  146  65  0
-7.279506 -8.115909 -25.071551  145  64  0
-7.281296 -8.953529 -25.089454  147  55  0
-7.281296 -9.036843 -25.089454  155  90  41
-7.281296 -9.120157 -25.089454  189  124  75
-7.281296 -9.203472 -25.089454  149  135  76
-7.281296 -9.286786 -25.089454  123  109  50
-7.291953 -11.410141 -25.196023  69  118  0
-7.291953 -11.828489 -25.196023  71  116  0
-7.291953 -11.912159 -25.196023  66  112  0
-7.291953 -11.995828 -25.196023  67  113  0
-7.291953 -12.079498 -25.196023  70  116  0
-7.353273 -12.500294 -25.809226  73  114  2
-7.353269 -12.585991 -25.809185  77  118  6
-7.353267 -12.671695 -25.809163  78  116  11
-7.353267 -12.757409 -25.809163  81  118  13
-7.353267 -12.843122 -25.809163  113  138  34
-7.353267 -12.928835 -25.809163  140  165  61
-7.353267 -13.014549 -25.809165  151  164  112
-7.353267 -13.528830 -25.809165  127  146  148
-7.353267 -13.614543 -25.809165  85  104  106
-7.353267 -13.700257 -25.809165  45  72  64
-7.353267 -13.785970 -25.809165  35  62  54
-7.353267 -13.871683 -25.809165  51  79  57
-7.517797 -20.020155 -27.454463  128  125  153
-7.256609 13.774960 -24.044282  178  150  153
-7.256609 13.695130 -24.044282  182  154  156
-7.256609 12.178351 -24.044282  180  144  148
-7.256609 12.098521 -24.044282  182  146  150
-7.432863 10.014925 -25.749965  43  10  13
-7.432863 9.929409 -25.749965  41  13  23
-7.432863 9.330796 -25.749965  90  62  78
-7.432863 9.245280 -25.749965  94  68  82
-7.432863 9.159764 -25.749965  91  65  79
-7.432863 8.988732 -25.749965  95  72  87
-7.432863 8.903216 -25.749965  98  74  90
-7.432863 8.817700 -25.749965  97  73  89
-7.432863 7.962539 -25.749965  82  51  80
-7.269153 7.274991 -24.165670  84  52  82
-7.269153 7.194756 -24.165670  85  53  83
-7.269153 7.114521 -24.165670  84  55  72
-7.269153 7.034286 -24.165670  83  54  71
-7.271780 6.963373 -24.191095  81  51  68
-7.271780 6.883053 -24.191095  79  49  66
-7.271780 6.802734 -24.191095  79  49  65
-7.322006 5.912493 -24.677150  99  69  91
-7.322006 5.830553 -24.677150  98  66  88
-7.311015 5.715642 -24.570793  94  62  84
-7.377289 4.658613 -25.212151  113  73  101
-7.472216 4.463533 -26.130793  91  59  85
-7.472216 4.376747 -26.130793  83  50  77
-7.472216 4.203176 -26.130793  90  53  82
-7.472216 4.116391 -26.130793  97  60  89
-7.472216 4.029605 -26.130794  104  61  92
-7.472216 3.942820 -26.130794  99  56  88
-7.472216 3.856034 -26.130794  97  50  83
-7.823550 0.090569 -29.530801  165  160  168
-7.823550 -0.007550 -29.530801  182  177  184
-7.244192 -5.605012 -23.924110  98  84  88
-7.244192 -5.684442 -23.924110  142  66  22
-7.244192 -6.717031 -23.924110  140  57  0
-7.244192 -6.796461 -23.924110  138  55  0
-7.244192 -6.875890 -23.924110  139  56  0
-7.246506 -6.960098 -23.946503  149  58  1
-7.280239 -7.110333 -24.272956  149  59  2
-7.280239 -7.190926 -24.272956  149  61  0
-7.280239 -7.271519 -24.272956  150  62  1
-7.280239 -7.352112 -24.272956  149  66  0
-7.280239 -7.432704 -24.272956  150  67  0
-7.280239 -7.513297 -24.272956  149  69  0
-7.280239 -7.593890 -24.272956  150  70  0
-7.355720 -7.849792 -25.003413  142  63  0
-7.365806 -7.956572 -25.101024  144  65  0
-7.365806 -8.039925 -25.101024  146  65  0
-7.365806 -8.123277 -25.101024  145  64  0
-7.365806 -8.206630 -25.101024  146  61  0
-7.367192 -8.293427 -25.114440  145  60  0
-7.367479 -8.377545 -25.117210  144  57  0
-7.367479 -8.460951 -25.117210  141  54  0
-7.367479 -8.544358 -25.117210  131  56  0
-7.367479 -9.044800 -25.117210  158  93  44
-7.367479 -9.295020 -25.117210  126  112  53
-7.375794 -10.071971 -25.197685  71  116  0
-7.377748 -11.501696 -25.216592  87  135  0
-7.377748 -11.585434 -25.216592  94  139  8
-7.377748 -11.669172 -25.216592  99  144  13
-7.377748 -11.752910 -25.216592  101  146  18
-7.377748 -11.836648 -25.216592  102  147  19
-7.377748 -11.920387 -25.216592  110  156  30
-7.377748 -12.004125 -25.216592  112  158  32
-7.377748 -12.087863 -25.216592  117  163  42
-7.377748 -12.255339 -25.216592  121  163  51
-7.377748 -12.339077 -25.216592  128  170  58
-7.377748 -12.506554 -25.216592  134  171  67
-7.377748 -12.590292 -25.216592  139  164  60
-7.377748 -12.674030 -25.216592  160  185  81
-7.449328 -13.574226 -25.909303  71  90  92
-7.449328 -13.660273 -25.909303  27  47  48
-7.449328 -13.746320 -25.909303  38  66  57
-7.449328 -13.832367 -25.909303  97  124  116
-7.449328 -13.918414 -25.909303  136  164  142
-7.608995 -20.020155 -27.454463  138  135  164
-7.608995 -20.111353 -27.454463  90  79  124
-7.329254 14.845433 -23.976919  179  148  144
-7.336984 14.177533 -24.049387  186  154  149
-7.337935 14.023751 -24.058301  187  154  148
-7.337944 13.943930 -24.058385  182  150  144
-7.336440 13.615300 -24.044282  181  149  147
-7.336440 12.258182 -24.044282  178  148  140
-7.336440 11.699369 -24.044282  190  153  152
-7.425339 12.089035 -24.877709  189  153  151
-7.425057 12.004950 -24.875072  185  149  147
-7.424974 11.921917 -24.874294  185  148  146
-7.424974 11.756723 -24.874294  184  147  144
-7.424974 11.674126 -24.874294  185  148  143
-7.488255 9.884071 -25.467548  79  51  59
-7.488255 9.799497 -25.467548  86  60  77
-7.488255 9.714922 -25.467548  95  68  86
-7.488255 9.545773 -25.467548  108  80  105
-7.488255 9.292049 -25.467548  100  68  97
-7.488255 9.207474 -25.467548  101  69  99
-7.488255 9.122899 -25.467548  104  70  99
-7.488255 9.038325 -25.467548  102  69  98
-7.488255 8.953750 -25.467548  100  70  105
-7.488255 8.108003 -25.467548  82  50  69
-7.488255 8.023429 -25.467548  85  53  73
-7.488255 7.938854 -25.467548  87  55  74
-7.392601 4.899787 -24.570793  88  54  75
-7.568950 4.573325 -26.224063  95  58  93
-7.568949 4.486226 -26.224055  93  56  92
-7.921669 0.581163 -29.530801  166  163  175
-7.921669 0.090569 -29.530801  157  152  159
-7.323757 -5.684646 -23.925382  130  77  47
-7.323757 -6.320119 -23.925382  129  60  3
-7.323757 -6.399553 -23.925382  134  65  7
-7.323757 -6.478987 -23.925382  134  67  16
-7.323757 -6.558421 -23.925382  144  77  26
-7.323757 -6.637855 -23.925382  158  89  36
-7.323757 -6.717289 -23.925382  170  101  47
-7.323757 -6.796724 -23.925382  179  111  56
-7.323757 -6.876158 -23.925382  179  112  56
-7.323757 -6.955592 -23.925382  169  120  79
-7.360832 -7.110333 -24.272956  173  124  84
-7.360832 -7.190926 -24.272956  178  132  95
-7.360832 -7.271519 -24.272956  185  138  101
-7.360832 -7.352112 -24.272956  185  143  111
-7.360832 -7.432704 -24.272956  189  147  115
-7.360832 -7.513297 -24.272956  190  153  128
-7.360832 -7.593890 -24.272956  195  158  133
-7.451288 -7.878009 -25.120983  191  159  140
-7.451288 -7.961428 -25.120983  195  163  144
-7.451288 -8.044848 -25.120983  186  157  143
-7.451288 -8.128267 -25.120983  180  150  136
-7.452812 -8.215306 -25.135271  175  147  136
-7.453103 -8.299473 -25.137997  168  140  129
-7.453103 -9.050758 -25.137997  152  76  8
-7.453103 -9.134235 -25.137997  194  118  50
-7.453103 -9.301187 -25.137997  138  116  49
-7.457815 -9.983279 -25.182170  92  130  0
-7.457889 -10.150756 -25.182868  112  143  23
-7.457889 -10.234382 -25.182868  117  139  50
-7.457889 -10.318008 -25.182868  116  138  49
-7.457889 -10.401633 -25.182868  120  137  74
-7.457889 -10.485259 -25.182868  126  142  79
-7.457889 -10.568885 -25.182868  122  141  83
-7.457889 -10.652511 -25.182868  115  134  76
-7.457889 -11.405142 -25.182868  105  143  10
-7.457889 -11.488768 -25.182868  133  171  38
-7.457889 -11.572394 -25.182868  153  173  101
-7.457889 -11.656020 -25.182868  151  171  99
-7.457889 -11.739645 -25.182868  157  162  161
-7.457889 -11.823271 -25.182868  161  166  165
-7.457889 -11.906897 -25.182868  164  167  174
-7.555320 -13.658989 -26.096281  84  99  101
-7.555320 -13.745659 -26.096281  38  53  55
-7.555320 -13.832330 -26.096281  11  35  28
-7.555320 -13.919000 -26.096281  32  56  49
-7.700192 -20.111353 -27.454463  89  94  129
-7.408860 14.845433 -23.976919  185  154  150
-7.408860 14.765827 -23.976919  184  153  149
-7.416270 13.774960 -24.044282  183  151  147
-7.416270 13.695130 -24.044282  183  151  147
-7.416270 13.615300 -24.044282  184  151  149
-7.448769 12.432495 -24.339729  177  146  138
-7.448769 12.351680 -24.339729  185  150  144
-7.448769 12.270865 -24.339729  186  151  145
-7.572224 9.881520 -25.462042  99  71  78
-7.572224 9.712408 -25.462042  106  79  96
-7.572224 9.627851 -25.462042  106  78  103
-7.572224 9.543295 -25.462042  108  81  105
-7.572224 9.458739 -25.462042  107  77  106
-7.572224 9.374182 -25.462042  100  71  99
-7.572224 9.289626 -25.462042  98  66  95
-7.572224 9.205070 -25.462042  100  68  97
-7.572830 8.530877 -25.467548  88  57  86
-7.572830 8.446302 -25.467548  87  57  81
-7.572830 8.361727 -25.467548  90  59  83
-7.474186 5.144544 -24.570793  80  46  65
-7.474186 5.062958 -24.570793  92  58  77
-7.630028 5.378060 -25.987533  97  63  84
-7.634453 3.746925 -26.027761  97  61  92
-7.634453 3.660483 -26.027761  80  55  79
-7.997920 0.564597 -29.332008  169  166  178
-7.997920 -0.020140 -29.332008  173  168  175
-7.404057 -6.321587 -23.933250  188  119  61
-7.404057 -6.401048 -23.933250  206  137  79
-7.404057 -6.480508 -23.933250  218  151  100
-7.404057 -6.559969 -23.933250  225  159  108
-7.404057 -6.639429 -23.933250  226  157  103
-7.404057 -6.718889 -23.933250  225  156  103
-7.534867 -8.378903 -25.122434  192  165  155
-7.534867 -8.462327 -25.122434  175  147  138
-7.534867 -9.046297 -25.122434  139  62  0
-7.534867 -9.129722 -25.122434  176  100  32
-7.534867 -9.296570 -25.122434  144  122  55
-7.538401 -10.057883 -25.154560  153  185  64
-7.539589 -10.144978 -25.165358  164  196  75
-7.539589 -10.228545 -25.165358  164  186  97
-7.539589 -10.312113 -25.165358  161  183  94
-7.539589 -10.395680 -25.165358  161  177  114
-7.539589 -10.479247 -25.165358  161  178  115
-7.539589 -10.562815 -25.165358  154  172  114
-7.539589 -10.646382 -25.165358  142  160  102
-7.539589 -10.729949 -25.165358  114  143  66
-7.539589 -10.813517 -25.165358  90  119  42
-7.539589 -11.398488 -25.165358  106  144  11
-7.539589 -11.482056 -25.165358  137  175  42
-7.654165 -13.796205 -26.206965  126  141  143
-7.654165 -13.883245 -26.206965  102  125  118
-7.791390 -20.020155 -27.454463  140  142  150
-8.276171 18.888479 -30.927256  182  151  145
-8.276171 18.785705 -30.927256  181  150  144
-8.276171 18.682931 -30.927256  179  147  141
-7.529585 11.947604 -24.339729  179  145  142
-7.529585 11.866789 -24.339729  179  145  144
-7.529585 11.785973 -24.339729  179  144  144
-7.529585 11.705158 -24.339729  183  148  149
-7.529585 11.624343 -24.339729  182  148  148
-7.529585 11.543527 -24.339729  182  147  147
-7.529585 11.462712 -24.339729  181  146  147
-7.529585 11.381897 -24.339729  181  146  145
-7.529585 10.977821 -24.339729  178  142  135
-7.656780 9.205070 -25.462042  102  72  104
-7.657404 8.700026 -25.467548  96  65  100
-7.555772 5.307715 -24.570793  91  55  74
-7.555772 5.226129 -24.570793  91  55  74
-7.555772 5.144544 -24.570793  94  58  79
-7.740480 4.915602 -26.200568  112  76  107
-7.740485 3.784376 -26.200612  96  61  91
-7.740485 3.175249 -26.200612  151  150  153
-7.740485 3.001212 -26.200612  166  166  167
-7.740485 2.914194 -26.200612  185  185  186
-7.484531 -5.687336 -23.942195  147  70  32
-7.484531 -6.323257 -23.942195  198  150  137
-7.484531 -6.402747 -23.942195  206  158  145
-7.612472 -9.031579 -25.071091  149  56  2
-7.612472 -9.114832 -25.071091  180  86  33
-7.612472 -9.281338 -25.071091  162  119  58
-7.612472 -9.364591 -25.071091  91  114  32
-7.618627 -9.964923 -25.125400  110  146  9
-7.618683 -11.383491 -25.125891  100  138  4
-7.618683 -11.466927 -25.125891  133  171  38
-7.751538 -13.750497 -26.298137  152  164  171
-7.751538 -14.012527 -26.298137  153  174  173
-7.751538 -14.099870 -26.298137  132  161  147
-7.751538 -14.187214 -26.298137  90  119  105
-7.751538 -14.274557 -26.298137  38  74  50
-7.751538 -14.536587 -26.298137  121  135  111
-7.751538 -14.623930 -26.298137  156  162  149
-7.882588 -20.020155 -27.454463  146  148  156
-7.882588 -20.111353 -27.454463  102  107  142
-7.721365 13.749533 -25.290857  182  150  150
-7.721365 13.581561 -25.290857  183  150  150
-7.735395 13.570932 -25.411113  181  149  149
-7.735395 13.486545 -25.411113  180  148  146
-7.735395 12.389520 -25.411113  188  154  154
-7.735395 12.305133 -25.411113  187  152  153
-7.735395 12.220747 -25.411113  186  151  152
-7.735395 12.136360 -25.411113  185  150  151
-7.735395 12.051974 -25.411113  184  149  150
-7.735395 11.967587 -25.411113  183  149  148
-7.735395 11.461268 -25.411113  182  147  140
-7.833105 3.707601 -26.248626  90  60  86
-7.833105 3.620423 -26.248626  84  55  80
-7.833105 3.533244 -26.248626  153  132  151
-7.833105 3.446066 -26.248626  253  232  251
-7.833105 3.358888 -26.248626  242  233  243
-7.833105 3.271710 -26.248626  203  194  204
-7.833105 3.184531 -26.248626  159  158  161
-7.833105 3.097353 -26.248626  143  142  145
-7.833105 2.922997 -26.248626  183  183  184
-8.177135 -0.028662 -29.197455  171  167  173
-7.691490 -8.688643 -25.034785  120  64  24
-7.691490 -9.104303 -25.034785  176  82  29
-7.691490 -9.187435 -25.034785  181  139  77
-7.691490 -9.270567 -25.034785  165  122  61
-7.691490 -9.353700 -25.034785  93  117  34
-7.698623 -9.955394 -25.095929  114  150  13
-7.698623 -10.872090 -25.095929  73  111  23
-7.698623 -11.372105 -25.095929  101  139  5
-7.698623 -11.455441 -25.095929  135  173  39
-7.841192 -13.846885 -26.317942  163  175  182
-7.841192 -13.934294 -26.317942  148  168  167
-7.841192 -14.021704 -26.317942  117  137  136
-7.841192 -14.109113 -26.317942  72  101  87
-7.841192 -14.196522 -26.317942  36  66  52
-7.841192 -14.283932 -26.317942  31  67  43
-7.841192 -14.371341 -26.317942  57  93  69
-7.841192 -14.458750 -26.317942  120  133  109
-7.841192 -14.546160 -26.317942  153  167  143
-7.841192 -14.633569 -26.317942  169  175  162
-7.973786 -20.111353 -27.454463  109  114  148
-7.864353 13.968756 -25.782547  185  152  155
-7.864353 13.883131 -25.782547  184  150  153
-7.846616 13.707343 -25.634738  183  150  152
-7.846616 13.622211 -25.634738  183  150  151
-7.776182 9.939107 -25.047785  106  82  102
-7.776182 9.855932 -25.047785  103  79  100
-7.776182 9.772757 -25.047785  102  78  103
-7.921534 3.535398 -26.259048  137  109  131
-7.921534 3.448185 -26.259048  244  217  239
-7.921534 3.360972 -26.259048  243  229  241
-7.921534 3.273759 -26.259048  207  193  205
-7.921534 3.186546 -26.259048  164  160  164
-7.921534 3.099333 -26.259048  143  138  143
-8.274141 0.456376 -29.197445  153  149  160
-8.274141 -0.028662 -29.197445  169  165  171
-8.274141 -0.125670 -29.197445  188  183  187
-7.767230 -8.588879 -24.973186  126  91  93
-7.767663 -8.672793 -24.976798  126  70  33
-7.767663 -9.087487 -24.976798  182  91  38
-7.767663 -9.170426 -24.976798  181  135  78
-7.767663 -9.253365 -24.976798  171  125  68
-7.767663 -9.336303 -24.976798  104  118  46
-7.774681 -9.935784 -25.035277  104  138  10
-7.774681 -10.018918 -25.035277  132  157  68
-7.774681 -10.767121 -25.035277  95  115  93
-7.774681 -10.850255 -25.035277  78  114  33
-7.774681 -11.349058 -25.035277  91  128  0
-7.774681 -11.432192 -25.035277  123  161  25
-7.774681 -11.515325 -25.035277  153  172  100
-7.939407 -13.888009 -26.407994  105  112  126
-7.939407 -13.975718 -26.407994  51  67  73
-7.939407 -14.063428 -26.407994  30  45  51
-7.939407 -14.151137 -26.407994  32  56  50
-7.939407 -14.238846 -26.407994  52  77  70
-7.939407 -14.326556 -26.407994  95  126  110
-7.939407 -14.414265 -26.407994  150  181  164
-7.939407 -14.501975 -26.407994  160  177  153
-7.913650 10.316761 -25.487999  108  84  101
-7.913650 10.232118 -25.487999  100  77  94
-7.913650 10.147475 -25.487999  98  74  94
-7.844962 9.801073 -24.931064  101  77  97
-7.844962 9.718287 -24.931064  101  77  103
-7.844962 9.635501 -24.931064  99  74  100
-8.006758 3.793544 -26.242925  98  63  92
-8.006758 3.706385 -26.242925  98  61  89
-8.006758 3.532066 -26.242925  132  104  126
-8.006758 3.444907 -26.242925  240  213  234
-8.006758 3.357748 -26.242925  251  237  249
-8.006758 3.270588 -26.242925  220  206  218
-8.006758 3.183429 -26.242925  175  171  175
-8.006758 3.096270 -26.242925  146  142  146
-8.371149 -0.028663 -29.197443  165  160  166
-8.371149 -0.125670 -29.197443  183  178  183
-7.760658 -5.816696 -24.247522  145  69  31
-7.817086 -7.860216 -24.705042  182  177  189
-7.817086 -7.942249 -24.705042  187  177  185
-7.817086 -8.024282 -24.705042  189  179  187
-7.817086 -8.106315 -24.705042  189  175  179
-7.817086 -8.188348 -24.705042  179  165  169
-7.817086 -8.270381 -24.705042  169  152  153
-7.834628 -8.389869 -24.847275  154  137  138
-7.835108 -8.473413 -24.851165  123  88  90
-7.835584 -8.556977 -24.855030  104  69  71
-7.836937 -9.055354 -24.865995  172  81  28
-7.836937 -9.137924 -24.865995  176  130  72
-7.836937 -9.303063 -24.865995  108  121  50
-7.836937 -9.385632 -24.865995  91  105  33
-7.846006 -9.987640 -24.939528  101  126  37
-7.846006 -10.070454 -24.939528  133  159  69
-7.846006 -10.153269 -24.939528  161  174  142
-7.846006 -10.567342 -24.939528  140  147  164
-7.846006 -10.650156 -24.939528  111  130  109
-7.846006 -10.732971 -24.939528  88  108  86
-7.846006 -11.312673 -24.939528  92  130  0
-7.846006 -11.395488 -24.939528  124  162  26
-7.846006 -11.478302 -24.939528  154  174  102
-8.038275 -13.929325 -26.498469  68  75  89
-8.038275 -14.017337 -26.498469  30  45  51
-8.038275 -14.105348 -26.498469  64  80  86
-8.038275 -14.193359 -26.498469  119  144  137
-8.038275 -14.369381 -26.498469  144  175  159
-8.038275 -14.457392 -26.498469  146  177  161
-8.038275 -14.545403 -26.498469  162  179  155
-8.029154 10.519160 -25.731633  95  68  89
-8.029154 10.433706 -25.731633  71  50  85
-8.029154 10.348251 -25.731633  81  59  94
-8.029154 10.262796 -25.731633  91  68  104
-8.029154 10.177341 -25.731633  93  70  106
-8.077054 3.504553 -26.109797  117  85  109
-8.077054 3.417838 -26.109797  225  193  216
-8.077054 3.331122 -26.109797  252  234  248
-8.077054 3.157691 -26.109797  176  168  174
-8.077054 3.070976 -26.109797  139  132  138
-8.077054 2.897545 -26.109797  177  175  177
-8.468156 -0.125670 -29.197444  180  176  180
-7.878818 -5.783748 -24.544769  120  75  35
-7.879340 -5.865921 -24.548897  118  72  32
-7.882259 -6.277630 -24.571936  156  87  30
-7.882692 -6.359847 -24.575358  195  125  68
-7.883302 -6.442347 -24.580174  212  165  142
-7.884135 -6.525213 -24.586751  212  166  142
-7.885876 -6.609509 -24.600494  197  162  163
-7.887486 -6.693693 -24.613205  199  164  165
-7.887674 -6.775716 -24.614685  196  168  182
-7.890000 -6.861182 -24.633051  197  169  182
-7.890000 -6.942975 -24.633051  190  169  189
-7.890000 -7.024768 -24.633051  183  162  182
-7.890000 -7.106561 -24.633051  187  168  179
-7.890000 -7.188354 -24.633051  186  168  178
-7.890000 -7.270147 -24.633051  185  167  176
-7.890000 -7.351940 -24.633051  183  164  173
-7.890000 -7.433733 -24.633051  179  160  166
-7.890000 -7.515526 -24.633051  175  156  162
