ply
format ascii 1.0
element face 0
property list uint8 int32 vertex_indices
element vertex 1066
property float x
property float y
property float z
property uchar diffuse_red 
property uchar diffuse_green 
property uchar diffuse_blue 
end_header
-5.704069 4.861730 -22.850011  81  65  89
-5.704069 4.785754 -22.850011  77  61  83
-5.708282 3.349797 -22.886117  55  36  58
-5.708282 3.273701 -22.886117  61  41  26
-5.708282 3.045412 -22.886117  230  214  203
-5.708282 2.817124 -22.886117  143  144  151
-5.708282 2.741028 -22.886117  167  168  175
-5.821212 0.062872 -23.854088  143  139  141
-6.302317 -6.190756 -27.977844  182  169  162
-6.302317 -6.283824 -27.977844  178  168  164
-6.302317 -6.376893 -27.977844  182  172  168
-6.302317 -6.469962 -27.977844  175  175  185
-6.302317 -6.563030 -27.977844  177  176  186
-6.302317 -6.656099 -27.977844  167  166  181
-6.302317 -6.749167 -27.977844  167  166  181
-6.302317 -6.842236 -27.977844  173  164  175
-6.302317 -6.935304 -27.977844  171  163  174
-6.302317 -7.028373 -27.977844  164  159  170
-6.302317 -7.121441 -27.977844  156  152  163
-6.302317 -7.214510 -27.977844  140  148  165
-6.302317 -7.307579 -27.977844  136  144  161
-6.302317 -7.400647 -27.977844  161  136  152
-6.302317 -7.959058 -27.977844  117  88  98
-6.302317 -8.052127 -27.977844  112  83  93
-6.302317 -8.145196 -27.977844  102  71  78
-6.302317 -8.238264 -27.977844  101  70  77
-6.302317 -8.331333 -27.977844  101  67  72
-6.302317 -8.424401 -27.977844  98  64  69
-6.302317 -8.517470 -27.977844  96  61  63
-6.302317 -8.610538 -27.977844  93  58  60
-6.302317 -8.703607 -27.977844  92  56  57
-6.302317 -8.796675 -27.977844  91  56  57
-6.302317 -8.889744 -27.977844  103  46  21
-6.313199 -9.007998 -28.071124  105  48  23
-6.313199 -9.101378 -28.071124  107  50  21
-6.313199 -9.194757 -28.071124  107  49  20
-6.313199 -9.288137 -28.071124  94  52  25
-6.313199 -9.381516 -28.071124  94  52  25
-6.313199 -9.474896 -28.071124  100  56  15
-6.313199 -9.568275 -28.071124  102  58  17
-6.313199 -9.661655 -28.071124  114  58  0
-6.313199 -9.755034 -28.071124  153  97  38
-6.435428 -12.584509 -29.118798  155  157  168
-6.435428 -12.681381 -29.118798  151  156  164
-6.435428 -12.778253 -29.118798  149  154  162
-6.435428 -12.875124 -29.118798  145  153  158
-6.435428 -12.971996 -29.118798  144  152  157
-6.435428 -13.068868 -29.118798  153  163  164
-6.435428 -13.165740 -29.118798  147  157  159
-6.435428 -13.262611 -29.118798  141  151  150
-6.468953 -13.477300 -29.406155  138  148  146
-6.468965 -13.575173 -29.406262  137  146  143
-6.468969 -13.673016 -29.406292  133  142  139
-6.468977 -13.770876 -29.406363  127  136  132
-6.468977 -13.868706 -29.406363  122  130  126
-6.468977 -13.966536 -29.406363  110  126  95
-6.468981 -15.042685 -29.406396  141  139  148
-6.468981 -15.140515 -29.406396  102  111  128
-6.468981 -15.336176 -29.406396  95  127  123
-6.468981 -15.727497 -29.406396  106  119  98
-5.489840 9.150408 -20.431639  67  59  136
-5.489840 9.082494 -20.431639  60  52  129
-5.489840 9.014579 -20.431639  47  39  109
-5.489840 8.946665 -20.431639  40  33  103
-5.489840 8.878750 -20.431639  36  31  93
-5.489840 8.810836 -20.431639  42  36  98
-5.492607 8.550472 -20.454690  51  48  96
-5.492607 8.482481 -20.454690  53  50  95
-5.492607 8.414490 -20.454690  53  50  95
-5.492607 8.346498 -20.454690  52  44  80
-5.492607 8.278507 -20.454690  53  46  82
-5.492607 8.210516 -20.454690  44  37  69
-5.492607 8.142524 -20.454690  35  28  60
-5.492607 8.074533 -20.454690  43  35  61
-5.515603 8.095332 -20.646324  54  47  72
-5.515603 8.026702 -20.646324  61  53  71
-5.515603 7.958072 -20.646324  63  55  74
-5.515603 7.889442 -20.646324  69  60  72
-5.515603 7.820811 -20.646324  80  71  83
-5.515603 7.752181 -20.646324  94  85  93
-5.515603 7.683551 -20.646324  108  99  107
-5.515603 7.614921 -20.646324  129  119  124
-5.515603 7.546291 -20.646324  153  142  148
-5.515603 7.477661 -20.646324  168  158  162
-5.515603 7.409031 -20.646324  173  162  166
-5.515603 7.340400 -20.646324  187  184  176
-5.515603 7.271770 -20.646324  193  190  182
-5.515603 7.203140 -20.646324  204  199  193
-5.515603 7.134510 -20.646324  203  198  192
-5.515603 7.065880 -20.646324  191  184  179
-5.515603 6.997250 -20.646324  183  176  171
-5.515603 6.928619 -20.646324  183  175  168
-5.515603 6.859989 -20.646324  181  173  166
-5.515603 6.791359 -20.646324  173  165  156
-5.577856 6.928511 -21.165101  167  159  150
-5.580467 6.866710 -21.186861  176  169  160
-5.582888 6.804145 -21.207034  180  174  164
-5.593875 6.769051 -21.298597  164  159  153
-5.595305 6.702814 -21.310514  143  138  133
-5.616803 6.700047 -21.489663  127  123  121
-5.617807 6.631755 -21.498023  125  121  119
-5.618381 6.562071 -21.502806  119  106  122
-5.619150 6.421451 -21.509215  110  95  110
-5.619639 6.351428 -21.513297  108  93  107
-5.620037 6.281100 -21.516609  104  87  101
-5.620285 6.210306 -21.518675  88  71  85
-5.620647 6.139833 -21.521691  75  59  74
-5.620925 6.069097 -21.524011  80  64  80
-5.621350 5.998770 -21.527554  75  61  80
-5.621551 5.927777 -21.529229  64  50  68
-5.792234 6.339804 -22.951583  49  36  56
-5.792234 6.263490 -22.951583  47  34  54
-5.792234 6.187176 -22.951583  56  42  61
-5.792234 6.110861 -22.951583  55  40  59
-5.792234 6.034547 -22.951583  47  31  48
-5.792234 4.737203 -22.951583  61  45  60
-5.792234 4.660889 -22.951583  73  52  64
-5.777891 4.553099 -22.832056  79  59  70
-5.777885 4.477172 -22.832014  74  54  63
-5.777884 4.401252 -22.831999  68  48  57
-5.777884 4.325337 -22.831999  78  58  65
-5.777884 4.249421 -22.831999  85  65  73
-5.777884 4.173505 -22.831999  78  58  67
-5.777882 4.097586 -22.831985  70  49  59
-5.777882 4.021670 -22.831985  79  58  71
-5.777882 3.945755 -22.831985  83  62  75
-5.777882 3.869839 -22.831985  75  54  69
-5.777882 3.793923 -22.831985  67  46  61
-5.777882 3.718007 -22.831985  76  56  69
-5.777882 3.642092 -22.831985  86  65  78
-5.777882 3.566176 -22.831985  81  60  72
-5.777882 3.490260 -22.831985  73  53  64
-5.777882 3.414345 -22.831985  75  57  76
-5.777882 3.338429 -22.831985  60  42  62
-5.777882 3.262513 -22.831985  61  41  28
-5.777882 3.034766 -22.831985  239  222  216
-5.777882 2.958851 -22.831985  185  179  192
-5.777882 2.807019 -22.831985  142  141  146
-5.777882 2.731103 -22.831985  165  165  170
-5.900534 0.062872 -23.854088  146  140  143
-6.392630 -5.814884 -27.954883  173  172  182
-6.394055 -5.909777 -27.966762  177  162  186
-6.394688 -6.096720 -27.972037  169  135  139
-6.394688 -6.189769 -27.972037  168  134  138
-6.394688 -6.282818 -27.972037  173  125  110
-6.394688 -6.375867 -27.972037  167  119  104
-6.394688 -6.468916 -27.972037  163  112  88
-6.394688 -6.561966 -27.972037  158  107  83
-6.394688 -6.655015 -27.972037  154  96  62
-6.394688 -6.748064 -27.972037  147  89  55
-6.394688 -6.841113 -27.972037  147  80  30
-6.401123 -6.944708 -28.025657  142  75  25
-6.401486 -7.038541 -28.028685  138  73  15
-6.403793 -7.135688 -28.047910  133  68  9
-6.403793 -7.228990 -28.047910  119  64  7
-6.403793 -7.322292 -28.047910  115  60  3
-6.403793 -7.508897 -28.047910  118  55  2
-6.403793 -7.602199 -28.047910  120  54  0
-6.403793 -7.695501 -28.047910  121  55  0
-6.403793 -7.788803 -28.047910  126  56  0
-6.403793 -7.882105 -28.047910  128  58  0
-6.457589 -8.553992 -28.496207  145  57  0
-6.480855 -9.843220 -28.690097  136  51  0
-6.482174 -9.941923 -28.701085  179  95  4
-6.510847 -11.071843 -28.940026  154  164  169
-6.510847 -11.168118 -28.940026  152  162  167
-6.510847 -11.264394 -28.940026  148  161  158
-6.510847 -11.360670 -28.940026  147  159  157
-6.510847 -11.456946 -28.940026  150  164  154
-6.510847 -11.553222 -28.940026  148  162  152
-6.510847 -11.649498 -28.940026  146  160  143
-6.510847 -11.842049 -28.940026  144  156  134
-6.510847 -11.938325 -28.940026  142  155  132
-6.510847 -12.034601 -28.940026  142  154  128
-6.510847 -12.130877 -28.940026  141  153  127
-6.510847 -12.227152 -28.940026  126  147  101
-6.510847 -12.323428 -28.940026  123  144  98
-6.510847 -12.419704 -28.940026  119  142  94
-6.510847 -12.515980 -28.940026  118  141  93
-6.510847 -12.612256 -28.940026  116  142  89
-6.510847 -12.708532 -28.940026  114  140  87
-6.510847 -12.804807 -28.940026  107  137  78
-6.510847 -12.901083 -28.940026  103  133  74
-6.510847 -12.997359 -28.940026  95  126  62
-6.510847 -13.093635 -28.940026  90  121  57
-6.510847 -13.189911 -28.940026  85  116  48
-6.557185 -13.444510 -29.326180  82  113  45
-6.557190 -13.542087 -29.326215  82  112  41
-6.557198 -13.639680 -29.326285  79  109  38
-6.557201 -13.737254 -29.326312  74  103  30
-6.557201 -14.029944 -29.326312  71  104  11
-6.557202 -14.127510 -29.326318  91  112  16
-6.557202 -14.225074 -29.326318  116  137  42
-6.557202 -15.103145 -29.326318  138  143  160
-6.557202 -15.200709 -29.326318  129  134  151
-6.557202 -15.298272 -29.326318  130  155  155
-6.557202 -15.786089 -29.326318  150  163  146
-5.557755 10.033297 -20.431639  98  105  135
-5.557755 9.965383 -20.431639  84  86  153
-5.557755 9.761639 -20.431639  77  77  162
-5.557755 9.693725 -20.431639  80  80  157
-5.557755 9.625810 -20.431639  77  77  155
-5.557755 9.557896 -20.431639  74  76  137
-5.557755 9.489981 -20.431639  69  71  132
-5.557755 9.150408 -20.431639  57  48  126
-5.557755 8.878750 -20.431639  65  60  122
-5.557755 8.810836 -20.431639  72  66  128
-5.560598 8.754447 -20.454690  82  77  132
-5.560598 8.686455 -20.454690  94  89  144
-5.560598 8.618464 -20.454690  108  105  153
-5.560598 8.550472 -20.454690  126  122  171
-5.560598 8.482481 -20.454690  143  140  185
-5.560598 8.414490 -20.454690  153  150  196
-5.560598 8.346498 -20.454690  175  168  204
-5.560598 8.278507 -20.454690  179  171  207
-5.560598 8.210516 -20.454690  175  168  200
-5.560598 8.142524 -20.454690  168  160  192
-5.560598 8.074533 -20.454690  170  163  188
-5.584233 8.095332 -20.646324  178  171  196
-5.584233 8.026702 -20.646324  188  180  198
-5.584233 7.958072 -20.646324  193  185  204
-5.584233 7.889442 -20.646324  199  190  202
-5.584233 7.820811 -20.646324  199  191  203
-5.584233 7.683551 -20.646324  207  197  205
-5.584233 7.614921 -20.646324  213  203  208
-5.584233 7.546291 -20.646324  216  205  210
-5.584233 7.477661 -20.646324  214  204  208
-5.584233 7.409031 -20.646324  211  200  205
-5.584233 7.340400 -20.646324  206  202  195
-5.584233 7.271770 -20.646324  206  203  195
-5.584233 6.791359 -20.646324  218  210  201
-5.653387 6.804145 -21.207034  224  217  208
-5.690192 6.491566 -21.505455  204  191  208
-5.690656 6.421451 -21.509215  206  191  206
-5.691160 6.351428 -21.513297  205  190  205
-5.691568 6.281100 -21.516609  207  190  204
-5.691823 6.210306 -21.518675  204  187  201
-5.692195 6.139833 -21.521691  197  181  196
-5.692481 6.069097 -21.524011  200  184  200
-5.692918 5.998770 -21.527554  195  181  199
-5.693125 5.927777 -21.529229  191  177  195
-5.868548 6.339804 -22.951583  184  171  191
-5.868548 6.263490 -22.951583  182  170  189
-5.868548 6.187176 -22.951583  185  170  189
-5.868548 6.110861 -22.951583  179  165  184
-5.868548 6.034547 -22.951583  170  153  170
-5.868548 5.958233 -22.951583  163  146  163
-5.868548 5.881918 -22.951583  154  137  152
-5.868548 5.805604 -22.951583  156  140  154
-5.868548 5.729290 -22.951583  148  132  144
-5.868548 5.652975 -22.951583  143  127  139
-5.868548 5.576661 -22.951583  146  130  140
-5.868548 5.500347 -22.951583  139  123  134
-5.868548 5.424032 -22.951583  128  112  124
-5.868548 5.347718 -22.951583  126  110  123
-5.868548 5.271403 -22.951583  126  109  126
-5.868548 5.195089 -22.951583  127  110  127
-5.868548 5.118775 -22.951583  121  103  122
-5.868548 5.042460 -22.951583  111  94  112
-5.868548 4.966146 -22.951583  104  87  104
-5.868548 4.889832 -22.951583  95  78  95
-5.868548 4.813517 -22.951583  80  64  79
-5.868548 4.737203 -22.951583  70  53  68
-5.868548 4.660889 -22.951583  66  46  57
-5.853806 4.553099 -22.832056  70  50  61
-5.853801 4.477172 -22.832014  63  43  52
-5.850072 4.393495 -22.801774  57  37  46
-5.850066 4.317667 -22.801724  63  43  51
-5.850066 4.241852 -22.801724  65  45  53
-5.850066 4.166037 -22.801724  56  36  45
-5.850066 4.090223 -22.801724  48  28  38
-5.850065 4.014406 -22.801717  47  26  39
-5.850065 3.938591 -22.801717  51  30  43
-5.850065 3.862776 -22.801717  45  24  39
-5.850065 3.786962 -22.801717  40  19  34
-5.850065 3.256258 -22.801717  44  24  11
-5.850065 3.180443 -22.801717  171  151  138
-5.850065 2.725554 -22.801717  164  164  169
-6.488026 -5.817939 -27.974379  171  169  180
-6.488026 -5.910996 -27.974379  143  127  152
-6.488026 -6.097110 -27.974379  100  66  70
-6.488026 -6.190167 -27.974379  95  61  65
-6.488026 -6.283224 -27.974379  102  54  39
-6.488026 -6.376281 -27.974379  103  54  40
-6.573845 -9.837385 -28.670204  136  51  0
-6.577157 -9.940729 -28.697063  176  92  1
-6.577157 -10.418059 -28.697063  157  152  158
-6.577157 -10.513525 -28.697063  160  154  161
-6.577157 -10.608991 -28.697063  145  151  164
-6.577157 -10.704457 -28.697063  141  146  159
-6.577157 -10.799923 -28.697063  134  142  152
-6.577157 -10.895389 -28.697063  131  138  148
-6.577157 -10.990855 -28.697063  126  136  141
-6.577157 -11.086321 -28.697063  121  131  135
-6.577157 -11.181787 -28.697063  114  126  124
-6.577157 -11.277253 -28.697063  111  123  121
-6.577157 -11.372719 -28.697063  104  118  108
-6.577157 -11.468185 -28.697063  102  115  105
-6.577157 -11.563651 -28.697063  98  111  95
-6.577157 -11.754583 -28.697063  90  102  80
-6.656501 -12.083790 -29.340389  85  98  76
-6.656323 -12.180872 -29.338949  83  94  69
-6.656182 -12.278054 -29.337802  81  92  67
-6.656060 -12.375287 -29.336815  75  96  50
-6.655945 -12.472533 -29.335880  71  92  46
-6.655856 -12.569855 -29.335161  66  90  41
-6.655763 -12.667160 -29.334410  67  90  41
-6.655763 -12.764751 -29.334410  67  94  41
-6.655669 -14.130684 -29.333642  90  111  16
-6.655669 -14.228272 -29.333642  117  138  43
-6.655669 -15.204151 -29.333642  117  122  139
-6.655669 -15.301739 -29.333642  77  103  103
-6.655669 -15.399327 -29.333642  60  86  86
-6.655669 -15.496915 -29.333642  58  77  66
-6.655669 -15.594503 -29.333642  80  98  87
-6.655669 -15.692090 -29.333642  123  137  119
-5.625670 10.101212 -20.431639  148  157  187
-5.625670 9.897468 -20.431639  74  80  135
-5.625670 9.829554 -20.431639  66  70  139
-5.625670 9.761639 -20.431639  68  72  141
-5.625670 9.693725 -20.431639  70  73  138
-5.625670 9.625810 -20.431639  72  75  140
-5.625670 9.557896 -20.431639  79  82  138
-5.625670 9.489981 -20.431639  76  80  136
-5.625670 9.422067 -20.431639  102  102  147
-5.625670 9.354152 -20.431639  111  111  156
-5.625670 9.286238 -20.431639  117  117  160
-5.625670 9.218323 -20.431639  120  120  162
-5.625670 9.150408 -20.431639  136  137  174
-5.625670 9.082494 -20.431639  156  157  193
-5.625670 9.014579 -20.431639  163  166  195
-5.625670 8.946665 -20.431639  171  173  203
-5.625670 8.878750 -20.431639  193  196  218
-5.625670 8.810836 -20.431639  196  199  222
-5.628589 8.754447 -20.454690  202  207  222
-5.628589 8.686455 -20.454690  206  211  226
-5.628589 8.618464 -20.454690  205  210  220
-5.628589 8.550472 -20.454690  199  204  214
-5.652863 7.752181 -20.646324  190  188  187
-5.944862 6.110861 -22.951583  177  169  182
-5.944862 6.034547 -22.951583  181  171  182
-5.944862 5.958233 -22.951583  181  171  183
-5.944862 5.881918 -22.951583  179  168  177
-5.944862 5.805604 -22.951583  186  175  184
-5.944862 5.729290 -22.951583  186  175  182
-5.944862 5.652975 -22.951583  186  175  182
-5.944862 5.576661 -22.951583  192  182  187
-5.944862 5.500347 -22.951583  192  182  187
-5.944862 5.424032 -22.951583  190  180  187
-5.944862 5.347718 -22.951583  194  183  191
-5.944862 5.271403 -22.951583  197  185  197
-5.944862 5.195089 -22.951583  209  197  209
-5.944862 5.118775 -22.951583  216  204  217
-5.944862 5.042460 -22.951583  209  197  211
-5.944862 4.966146 -22.951583  195  184  196
-5.944862 4.889832 -22.951583  182  171  183
-5.944862 4.813517 -22.951583  172  161  170
-5.944862 4.737203 -22.951583  165  154  164
-5.944862 4.660889 -22.951583  176  159  167
-5.929722 4.553099 -22.832056  176  160  168
-5.929717 4.477172 -22.832014  168  152  158
-5.926954 4.395658 -22.810203  162  146  152
-5.926955 4.319816 -22.810205  166  150  154
-5.926955 4.243972 -22.810205  164  148  153
-5.926955 4.168129 -22.810205  156  140  146
-5.926955 4.092286 -22.810205  152  136  142
-5.926955 4.016443 -22.810205  141  124  133
-5.926955 3.940600 -22.810205  141  125  133
-5.926955 3.864757 -22.810205  132  115  125
-5.926955 3.788914 -22.810205  123  106  116
-5.926955 3.713071 -22.810205  120  103  111
-5.926955 3.637228 -22.810205  111  95  103
-5.926955 3.561385 -22.810205  101  84  90
-5.926955 3.485541 -22.810205  98  81  87
-5.926955 3.409698 -22.810205  88  75  90
-5.926955 3.333855 -22.810205  83  70  85
-5.926955 3.258012 -22.810205  76  59  48
-5.926955 3.182169 -22.810205  180  163  152
-5.926955 3.106326 -22.810205  235  220  219
-5.926955 2.878797 -22.810205  149  145  161
-5.926955 2.727111 -22.810205  164  165  168
-6.059180 0.062872 -23.854088  143  135  139
-6.059180 -0.016451 -23.854088  170  161  164
-6.597977 -5.838833 -28.107747  168  166  177
-6.597977 -5.932335 -28.107747  146  130  129
-6.661842 -10.105844 -28.611951  182  141  92
-6.661842 -10.201026 -28.611951  124  141  108
-6.661842 -10.296209 -28.611951  118  134  102
-6.661842 -10.391391 -28.611951  104  132  87
-6.661842 -10.486573 -28.611951  99  127  82
-6.661842 -10.581755 -28.611951  96  122  33
-6.661842 -10.676938 -28.611951  90  117  28
-6.661842 -10.772120 -28.611951  83  111  20
-6.661842 -10.867302 -28.611951  77  106  14
-6.661842 -10.962484 -28.611951  72  103  7
-6.752996 -11.299944 -29.331587  70  101  5
-6.753008 -11.397556 -29.331677  68  102  0
-6.763091 -14.066482 -29.411283  70  115  0
-6.763091 -14.164329 -29.411283  92  123  0
-6.763091 -15.044949 -29.411283  161  155  164
-6.763091 -15.142796 -29.411283  129  131  147
-6.763091 -15.240642 -29.411283  76  78  94
-6.763091 -15.338489 -29.411283  28  49  54
-6.763091 -15.436336 -29.411283  14  35  39
-6.763091 -15.534183 -29.411283  23  41  34
-6.763091 -15.632029 -29.411283  33  52  45
-6.763091 -15.729876 -29.411283  88  101  87
-6.763091 -15.827723 -29.411283  136  149  136
-5.693584 10.033297 -20.431639  145  154  184
-5.693584 9.965383 -20.431639  132  138  194
-5.693584 9.897468 -20.431639  130  136  191
-5.693584 9.829554 -20.431639  142  145  214
-5.693584 9.761639 -20.431639  160  163  232
-5.693584 9.693725 -20.431639  164  167  232
-5.693584 9.625810 -20.431639  170  173  238
-5.693584 9.557896 -20.431639  186  190  246
-5.693584 9.489981 -20.431639  189  193  249
-5.693584 9.422067 -20.431639  188  188  233
-5.693584 9.354152 -20.431639  199  199  244
-5.693584 9.286238 -20.431639  204  204  247
-5.693584 9.218323 -20.431639  200  200  242
-5.693584 9.150408 -20.431639  204  205  242
-5.693584 9.082494 -20.431639  206  207  244
-5.693584 9.014579 -20.431639  199  202  231
-6.011175 3.499503 -22.874645  166  150  156
-6.011175 3.423446 -22.874645  165  152  167
-6.011175 3.347388 -22.874645  159  146  161
-6.011175 3.271330 -22.874645  132  116  105
-6.011175 3.195272 -22.874645  204  187  176
-6.011175 3.043156 -22.874645  232  217  217
-6.011175 2.967098 -22.874645  187  184  199
-6.011175 2.891040 -22.874645  149  146  161
-6.199085 0.092386 -24.320106  141  133  138
-6.199085 0.011510 -24.320106  166  156  159
-6.760694 -10.019130 -28.640178  166  125  76
-6.760694 -10.114406 -28.640178  151  110  61
-6.760694 -10.209683 -28.640178  83  99  67
-6.842016 -10.498881 -29.265734  75  91  59
-6.842777 -10.598075 -29.271581  66  93  48
-6.866413 -14.084593 -29.453402  61  106  0
-6.866413 -14.182580 -29.453402  86  117  0
-6.866413 -15.064464 -29.453402  144  138  148
-6.866413 -15.162451 -29.453402  111  113  129
-6.866413 -15.260438 -29.453402  83  84  100
-6.866413 -15.358425 -29.453402  85  106  111
-6.866413 -15.456412 -29.453402  115  136  140
-6.866413 -15.554400 -29.453402  108  126  119
-6.866413 -15.652387 -29.453402  63  81  74
-6.866413 -15.750374 -29.453402  73  86  73
-6.866413 -15.848361 -29.453402  120  133  119
-5.761499 10.101212 -20.431639  185  192  196
-5.761499 10.033297 -20.431639  181  187  191
-5.761499 9.965383 -20.431639  196  204  205
-5.761499 9.897468 -20.431639  198  205  206
-5.761499 9.829554 -20.431639  200  207  207
-5.761499 9.761639 -20.431639  200  207  207
-6.084696 3.267398 -22.855619  145  135  124
-6.084696 3.191403 -22.855619  188  177  166
-6.084696 3.039414 -22.855619  229  219  224
-6.084696 2.963420 -22.855619  191  192  209
-6.084696 2.887425 -22.855619  147  147  165
-6.279960 0.092386 -24.320103  141  134  138
-6.910493 -10.045166 -29.049096  165  74  21
-6.910493 -10.141805 -29.049096  158  122  70
-6.914633 -10.247863 -29.080146  145  109  57
-6.968160 -14.096717 -29.481596  63  110  0
-6.968160 -15.175608 -29.481596  103  104  119
-6.968160 -15.273689 -29.481596  96  97  112
-6.968160 -15.371771 -29.481596  119  139  148
-6.968160 -15.469852 -29.481596  143  163  172
-6.968160 -15.567933 -29.481596  140  159  154
-6.968160 -15.666014 -29.481596  106  125  120
-6.968160 -15.764095 -29.481596  101  114  102
-6.968160 -15.862176 -29.481596  121  134  123
-6.164660 3.121219 -22.884668  226  216  220
-6.164660 3.045127 -22.884668  229  219  224
-6.164660 2.969036 -22.884668  191  192  210
-6.164660 2.892945 -22.884668  146  146  164
-6.360836 0.011510 -24.320101  168  159  162
-6.894824 -5.857567 -28.227325  172  170  181
-7.012446 -10.056700 -29.087976  175  84  31
-7.067575 -14.100914 -29.491357  62  109  0
-7.067575 -14.199027 -29.491357  85  120  0
-7.067575 -15.082050 -29.491357  143  137  147
-7.067575 -15.180163 -29.491357  101  103  117
-7.067575 -15.278277 -29.491357  97  99  114
-7.067575 -15.376391 -29.491357  121  141  151
-7.067575 -15.572618 -29.491357  129  147  143
-6.258218 3.069663 -23.009428  228  220  230
-6.988724 -5.857567 -28.227325  168  166  178
-6.988724 -6.139268 -28.227325  122  67  30
-7.112080 -10.062772 -29.108443  177  82  14
-7.112080 -10.256446 -29.108443  143  103  35
-7.185718 -15.148337 -29.634423  141  138  146
-7.185718 -15.246928 -29.634423  100  105  116
-7.185718 -15.345518 -29.634423  80  85  96
-7.185718 -15.542699 -29.634423  113  135  149
-7.185718 -15.641290 -29.634423  94  113  109
-7.185718 -15.739880 -29.634423  76  95  91
-7.185718 -15.838471 -29.634423  109  122  111
-7.185718 -15.937061 -29.634423  142  156  145
-6.375387 3.125455 -23.293115  229  221  231
-6.375387 3.048002 -23.293115  193  195  215
-6.522588 0.092386 -24.320098  143  136  141
-7.183539 -9.913997 -28.931382  147  52  0
-7.183539 -10.010244 -28.931382  173  78  11
-7.313913 -14.251248 -29.840971  64  108  0
-7.313913 -15.244038 -29.840971  144  140  148
-7.313913 -15.343317 -29.840971  99  104  116
-7.313913 -15.541875 -29.840971  6  28  42
-7.313913 -15.641154 -29.840971  10  32  46
-7.313913 -15.839712 -29.840971  54  73  69
-7.313913 -15.938991 -29.840971  111  124  113
-7.313913 -16.038270 -29.840971  142  156  145
-6.490331 3.410641 -23.548734  133  126  119
-6.490331 3.332337 -23.548734  171  164  156
-6.490331 3.254032 -23.548734  217  208  223
-6.490331 3.175727 -23.548734  230  221  236
-6.490331 3.097422 -23.548734  196  196  220
-6.490331 2.862507 -23.548734  153  159  151
-6.603464 0.092386 -24.320098  134  130  134
-6.603464 0.011510 -24.320098  155  149  152
-7.229943 -5.914629 -28.591548  171  169  181
-7.274317 -9.999182 -28.894094  165  73  5
-7.274317 -10.191427 -28.894094  135  95  31
-7.437970 -14.323892 -30.009912  68  107  0
-7.437970 -15.521998 -30.009912  115  124  132
-7.437970 -15.621840 -30.009912  87  113  131
-7.437970 -15.721682 -30.009912  85  111  129
-7.437970 -15.821524 -30.009912  123  142  138
-7.437970 -15.921366 -30.009912  134  153  149
-7.437970 -16.021208 -30.009912  144  157  146
-6.619319 3.480472 -23.886621  135  128  121
-6.619319 3.401040 -23.886621  170  163  155
-6.619319 3.321609 -23.886621  215  206  221
-6.619319 3.162747 -23.886621  198  198  222
-6.619319 2.924454 -23.886621  152  158  150
-7.338865 -5.929050 -28.683600  170  168  181
-7.370784 -10.192123 -28.896389  143  103  39
-7.550044 -15.259981 -30.091454  153  153  155
-7.550044 -15.360095 -30.091454  150  151  152
-7.550044 -15.860665 -30.091454  108  127  124
-7.550044 -15.960779 -30.091454  109  128  124
-6.773056 3.418530 -24.371225  214  203  222
-6.773056 3.175391 -24.371225  150  148  175
-6.773056 3.013298 -24.371225  152  155  147
-6.765216 0.011510 -24.320097  156  151  154
-7.459808 -9.890137 -28.850042  129  47  1
-7.459808 -10.178065 -28.850042  126  96  51
-7.660040 -14.587328 -30.155908  121  151  7
-7.660040 -15.289630 -30.155908  151  154  150
-7.660040 -15.389958 -30.155908  130  133  129
-7.660040 -15.590616 -30.155908  38  50  55
-7.660040 -15.690945 -30.155908  10  38  59
-7.660040 -15.791273 -30.155908  0  23  44
-7.660040 -15.891602 -30.155908  5  24  20
-7.660040 -15.991931 -30.155908  30  49  45
-7.660040 -16.092260 -30.155908  91  105  94
-6.923034 5.569357 -24.811218  196  192  205
-6.923034 5.486844 -24.811218  170  166  178
-6.915227 3.496561 -24.761382  213  202  220
-6.915227 3.249520 -24.761382  151  149  175
-6.915227 3.084826 -24.761382  150  153  146
-6.846092 0.011510 -24.320097  153  149  151
-7.554754 -9.216531 -28.843468  129  45  0
-7.554754 -9.312485 -28.843468  137  50  0
-7.554754 -9.408439 -28.843468  144  56  0
-7.554754 -9.504393 -28.843468  139  61  0
-7.554754 -9.600347 -28.843468  142  64  0
-7.554754 -9.696301 -28.843468  150  69  19
-7.554754 -9.792255 -28.843468  157  77  26
-7.554754 -9.888209 -28.843468  173  90  44
-7.554754 -9.984163 -28.843468  186  104  57
-7.554754 -10.176071 -28.843468  124  93  49
-7.771080 -14.617181 -30.224272  129  158  14
-7.771080 -15.321077 -30.224272  145  149  144
-7.771080 -15.421634 -30.224272  136  140  135
-7.771080 -15.522190 -30.224272  76  88  93
-7.771080 -15.823860 -30.224272  69  98  119
-7.771080 -15.924417 -30.224272  98  117  113
-7.771080 -16.024974 -30.224272  119  139  134
-7.771080 -16.125530 -30.224272  136  150  139
-7.039790 5.629995 -25.025233  191  188  195
-7.039790 5.546768 -25.025233  172  166  171
-7.038276 3.713829 -25.015772  141  131  126
-7.038276 3.630634 -25.015772  173  164  158
-7.038276 3.547439 -25.015772  212  204  211
-7.038276 3.297854 -25.015772  155  154  175
-7.038276 3.131464 -25.015772  151  151  151
-6.926968 0.011510 -24.320097  153  150  152
-7.648846 -5.952273 -28.831833  168  166  175
-7.649125 -7.487283 -28.833578  138  61  0
-7.649125 -7.583204 -28.833578  140  47  0
-7.647148 -8.155846 -28.821221  119  46  0
-7.647261 -8.251894 -28.821928  119  46  0
-7.647261 -8.347776 -28.821928  119  51  0
-7.647261 -8.443658 -28.821928  124  57  0
-7.647261 -8.539540 -28.821928  130  65  7
-7.647261 -8.635422 -28.821928  138  73  14
-7.647261 -8.731304 -28.821928  144  79  23
-7.647261 -8.827187 -28.821928  152  87  31
-7.647261 -8.923069 -28.821928  161  96  41
-7.647261 -9.018951 -28.821928  168  103  47
-7.647261 -9.114833 -28.821928  162  107  71
-7.647261 -9.210715 -28.821928  172  116  81
-7.647261 -9.306597 -28.821928  174  130  108
-7.647261 -9.402480 -28.821928  181  137  115
-7.647261 -9.498362 -28.821928  176  140  130
-7.647261 -9.594244 -28.821928  177  142  132
-7.647261 -9.690126 -28.821928  177  147  143
-7.647261 -9.786008 -28.821928  181  151  147
-7.647261 -9.881890 -28.821928  166  156  150
-7.647261 -9.977773 -28.821928  161  151  146
-7.647261 -10.169537 -28.821928  92  111  85
-7.882771 -13.639684 -30.293866  67  99  0
-7.881625 -13.737560 -30.286704  66  95  0
-7.881632 -13.838341 -30.286745  64  93  0
-7.881636 -13.939116 -30.286767  65  91  0
-7.881635 -14.039880 -30.286767  66  92  0
-7.881635 -14.140645 -30.286767  67  93  0
-7.881635 -14.241410 -30.286767  68  93  0
-7.881635 -14.342175 -30.286767  74  100  0
-7.881635 -14.442940 -30.286767  86  113  0
-7.881635 -14.543705 -30.286767  112  128  33
-7.881635 -14.644470 -30.286767  134  150  56
-7.881635 -15.349825 -30.286767  141  146  178
-7.881635 -15.551355 -30.286767  96  109  120
-7.881635 -15.652120 -30.286767  105  118  129
-7.881635 -15.853650 -30.286767  145  164  144
-7.881635 -15.954415 -30.286767  139  156  141
-7.881635 -16.055180 -30.286767  138  155  140
-7.881635 -16.155945 -30.286767  137  147  141
-7.149478 5.843430 -25.187241  173  173  180
-7.147870 5.673108 -25.177399  200  196  203
-7.147169 5.588172 -25.173106  177  172  176
-7.147152 3.746323 -25.173002  134  125  120
-7.147152 3.662604 -25.173002  166  157  151
-7.007844 0.011510 -24.320097  153  150  152
-7.746921 -5.954345 -28.845058  164  162  171
-7.746766 -7.393538 -28.844109  139  62  0
-7.746766 -7.489494 -28.844109  144  67  0
-7.746766 -7.585450 -28.844109  155  62  16
-7.744486 -7.678382 -28.830151  155  62  15
-7.744278 -8.445348 -28.828872  198  130  71
-7.744278 -8.541253 -28.828872  204  139  80
-7.744278 -8.637158 -28.828872  210  144  86
-7.744278 -8.733064 -28.828872  212  147  90
-7.744278 -8.828969 -28.828872  214  149  92
-7.744278 -8.924874 -28.828872  217  151  96
-7.744278 -9.020779 -28.828872  219  154  98
-7.744278 -9.116685 -28.828872  199  144  109
-7.744278 -9.212590 -28.828872  199  144  109
-7.744278 -9.308495 -28.828872  189  145  123
-7.744278 -9.883927 -28.828872  162  152  147
-7.744278 -10.171643 -28.828872  83  103  77
-7.995536 -13.063059 -30.367189  55  97  0
-7.995536 -13.164092 -30.367189  58  98  0
-7.995536 -13.265125 -30.367189  61  100  0
-7.995536 -13.366158 -30.367189  67  103  0
-7.995536 -13.467191 -30.367189  70  106  0
-7.995536 -13.568224 -30.367189  72  105  0
-7.994375 -13.666390 -30.360080  78  110  5
-7.994368 -13.767382 -30.360036  89  118  16
-7.994364 -13.868381 -30.360014  101  130  27
-7.994364 -13.969391 -30.360014  113  139  38
-7.994364 -14.070400 -30.360014  120  146  45
-7.994364 -14.171409 -30.360014  124  149  49
-7.994364 -14.272418 -30.360014  125  150  50
-7.994364 -14.373427 -30.360014  132  158  27
-7.994364 -14.474436 -30.360014  134  160  29
-7.994364 -15.383518 -30.360014  128  134  166
-7.994364 -15.484528 -30.360014  103  108  140
-7.266608 5.901482 -25.387421  157  155  161
-7.266608 5.732615 -25.387421  191  188  197
-7.259884 5.636884 -25.347076  174  172  179
-7.259892 3.950908 -25.347127  150  145  158
-7.259892 3.866609 -25.347127  139  134  147
-7.259892 3.445111 -25.347127  205  205  222
-7.259892 3.192213 -25.347127  151  152  149
-7.847993 -5.959151 -28.875735  162  160  170
-7.847993 -6.055213 -28.875735  150  119  137
-7.842604 -7.393391 -28.843398  168  87  13
-7.842558 -7.489287 -28.843123  177  96  22
-7.842438 -7.585086 -28.842401  179  117  84
-7.842334 -7.680901 -28.841776  188  125  93
-7.842257 -7.776748 -28.841314  197  142  111
-7.857268 -11.550196 -28.931382  67  104  0
-7.857268 -11.742690 -28.931382  67  103  0
-7.886778 -11.902679 -29.108443  66  104  0
-7.886778 -11.999516 -29.108443  67  105  0
-8.100588 -12.566736 -30.391303  67  108  0
-8.100332 -12.667280 -30.389765  69  109  0
-8.100115 -12.767902 -30.388463  89  120  22
-8.100115 -12.869006 -30.388463  92  123  25
-8.100115 -12.970110 -30.388463  97  127  35
-8.100115 -13.071214 -30.388463  103  132  40
-8.100115 -13.172318 -30.388463  110  136  55
-8.100115 -13.273422 -30.388463  118  144  64
-8.100115 -13.374526 -30.388463  128  150  85
-8.100115 -13.475630 -30.388463  134  156  91
-8.100115 -13.576734 -30.388463  139  157  108
-8.100115 -13.677838 -30.388463  140  157  108
-8.100115 -15.396605 -30.388463  125  135  152
-8.100115 -15.497709 -30.388463  80  90  107
-8.100115 -15.598813 -30.388463  41  57  62
-8.100115 -15.699917 -30.388463  44  60  65
-8.095373 -15.989573 -30.360014  63  77  62
-8.095373 -16.090582 -30.360014  98  112  97
-8.095373 -16.191591 -30.360014  129  137  131
-7.344846 5.890913 -25.350975  160  158  164
-7.349093 3.957059 -25.375959  117  112  125
-7.349093 3.872664 -25.375959  106  101  113
-7.349093 3.788268 -25.375959  100  92  83
-7.349093 3.450686 -25.375959  206  206  223
-7.947515 -5.962340 -28.896091  164  162  171
-7.947515 -6.058470 -28.896091  138  107  125
-7.939392 -7.490376 -28.848309  142  61  0
-7.939332 -7.586270 -28.847953  130  68  35
-7.939274 -7.682165 -28.847612  131  68  35
-7.939274 -8.545875 -28.847612  158  147  152
-7.939274 -8.641843 -28.847612  161  150  156
-7.939274 -8.737811 -28.847612  159  153  169
-7.939274 -10.081360 -28.847612  97  126  96
-7.938116 -10.654988 -28.840803  67  101  0
-8.127232 -11.110623 -29.953246  70  105  0
-8.130286 -11.216145 -29.971211  74  112  0
-8.132141 -11.319459 -29.982125  80  117  0
-8.135013 -11.424840 -29.999019  80  120  0
-8.135013 -11.524646 -29.999019  80  120  0
-8.135013 -11.624452 -29.999019  84  123  0
-8.148139 -11.750767 -30.076231  88  127  0
-8.153192 -11.861134 -30.105955  95  131  0
-8.155965 -11.967006 -30.122266  99  136  0
-8.161382 -12.178804 -30.154131  112  148  4
-8.164704 -12.286162 -30.173673  116  153  7
-8.166915 -12.391275 -30.186677  121  159  12
-8.169026 -12.496259 -30.199095  125  165  17
-8.170489 -12.599916 -30.207699  128  169  21
-8.171760 -12.703209 -30.215176  128  160  62
-8.171760 -12.803735 -30.215176  130  162  63
-8.171760 -12.904261 -30.215176  131  161  69
-8.174634 -15.324669 -30.232080  137  147  164
-8.174634 -15.425252 -30.232080  104  115  131
-8.174634 -15.525834 -30.232080  59  75  80
-8.174634 -15.626417 -30.232080  43  59  65
-8.174634 -16.028748 -30.232080  101  115  99
-7.466272 3.827355 -25.565091  91  83  70
-7.466272 3.742329 -25.565091  138  130  118
-7.466272 3.402225 -25.565091  159  159  174
-8.038725 -5.957894 -28.867710  163  162  171
-8.038725 -6.053929 -28.867710  139  106  131
-8.038725 -6.245998 -28.867710  121  60  42
-8.037019 -8.068395 -28.857865  127  42  0
-8.037019 -8.164397 -28.857865  120  40  0
-8.037019 -8.260399 -28.857865  119  38  0
-8.037019 -8.356401 -28.857865  119  43  0
-8.037019 -8.452403 -28.857865  122  47  0
-8.037019 -8.548405 -28.857865  125  53  0
-8.037019 -8.644407 -28.857865  134  62  4
-8.037019 -8.740408 -28.857865  142  73  21
-8.037019 -8.836410 -28.857865  153  84  32
-8.037019 -8.932412 -28.857865  161  93  45
-8.037019 -9.028414 -28.857865  167  99  51
-8.037019 -9.124416 -28.857865  146  116  88
-8.037019 -9.220418 -28.857865  152  122  94
-8.037019 -9.316420 -28.857865  155  131  112
-8.037019 -9.412422 -28.857865  162  138  119
-8.037019 -9.508424 -28.857865  165  139  128
-8.037019 -9.604426 -28.857865  167  140  130
-8.037019 -10.180438 -28.857865  112  111  97
-8.035242 -10.273296 -28.847612  104  116  67
-8.035242 -10.369263 -28.847612  108  119  71
-8.035242 -10.465231 -28.847612  116  126  42
-8.034062 -10.559043 -28.840803  121  131  47
-8.034062 -10.654988 -28.840803  118  132  65
-8.284582 -11.218251 -30.286116  122  135  69
-8.284185 -11.318264 -30.283821  126  141  79
-8.284185 -11.419019 -30.283821  132  147  85
-8.284185 -11.519774 -30.283821  132  148  95
-8.291949 -11.635610 -30.328615  133  148  95
-8.291517 -11.735668 -30.326125  136  149  109
-8.293224 -11.839944 -30.335970  140  153  113
-8.294840 -11.944105 -30.345293  144  151  125
-8.285965 -13.942143 -30.294091  144  147  168
-8.285965 -14.042932 -30.294091  144  148  168
-8.285965 -14.143722 -30.294091  143  147  169
-8.285965 -14.244511 -30.294091  142  146  168
-8.285965 -14.345300 -30.294091  139  149  152
-8.285965 -14.446090 -30.294091  139  149  152
-8.285965 -14.546879 -30.294091  142  145  158
-8.285965 -15.252405 -30.294091  137  147  140
-8.285965 -15.353194 -30.294091  119  134  135
-8.285965 -15.756352 -30.294091  125  147  135
-8.285965 -15.857141 -30.294091  141  163  151
-8.285965 -15.957930 -30.294091  143  155  140
-7.577434 3.857931 -25.713036  87  79  67
-7.577434 3.772411 -25.713036  135  127  114
-7.577434 3.686892 -25.713036  199  191  193
-7.577434 3.259296 -25.713036  141  142  137
-8.130532 -5.954145 -28.843778  159  157  167
-8.130532 -6.050100 -28.843778  134  101  125
-8.161812 -8.395513 -29.020833  130  55  0
-8.166305 -8.884767 -29.046268  115  46  0
-8.166305 -8.981397 -29.046268  112  44  0
-8.166305 -9.078027 -29.046268  111  43  0
-8.166305 -9.174657 -29.046268  83  54  25
-8.166305 -9.271287 -29.046268  85  56  27
-8.166305 -9.367917 -29.046268  83  59  40
-8.166305 -9.464547 -29.046268  87  63  44
-8.246856 -9.688841 -29.502213  93  67  56
-8.256362 -9.802237 -29.556021  103  77  66
-8.256362 -9.900566 -29.556021  119  87  81
-8.256362 -9.998895 -29.556021  128  95  89
-8.256362 -10.392212 -29.556021  145  144  130
-8.256362 -10.490541 -29.556021  144  156  107
-8.256362 -10.588870 -29.556021  147  159  110
-8.256362 -10.687199 -29.556021  151  161  78
-8.256362 -10.785528 -29.556021  155  165  82
-8.256362 -10.883858 -29.556021  150  164  97
-8.363564 -13.085073 -30.162829  145  151  159
-8.380422 -13.222638 -30.258246  146  152  159
-8.380438 -13.323343 -30.258337  145  151  161
-8.380452 -13.424045 -30.258417  145  150  161
-8.380456 -13.524725 -30.258442  144  149  163
-8.380456 -13.625396 -30.258442  140  145  159
-8.380456 -13.726066 -30.258442  134  138  156
-8.380457 -13.826739 -30.258447  126  131  148
-8.380457 -13.927410 -30.258447  119  123  143
-8.380457 -14.028080 -30.258447  113  117  137
-8.380457 -14.128751 -30.258447  107  111  132
-8.380457 -14.229421 -30.258447  104  108  129
-8.380457 -15.236127 -30.258447  132  142  135
-8.380457 -15.437468 -30.258447  81  96  97
-8.380457 -15.538139 -30.258447  88  107  106
-8.380457 -15.638809 -30.258447  128  147  146
-8.380457 -15.739480 -30.258447  140  162  150
-7.700007 3.900474 -25.918889  92  84  71
-7.700007 3.728063 -25.918889  209  201  203
-7.412224 0.011510 -24.320096  152  149  150
-8.226487 -5.858190 -28.843778  167  165  175
-8.226487 -5.954145 -28.843778  156  154  163
-8.226487 -6.050100 -28.843778  135  97  116
-8.363694 -9.717912 -29.606035  127  50  0
-8.363694 -9.816408 -29.606035  123  46  0
-8.363694 -9.914904 -29.606035  116  42  0
-8.363694 -10.013399 -29.606035  114  39  0
-8.363694 -10.111895 -29.606035  127  70  40
-8.416863 -12.188151 -29.901421  145  149  151
-8.416863 -12.287632 -29.901421  144  148  150
-8.416863 -12.387112 -29.901421  141  148  147
-8.416863 -12.486593 -29.901421  139  147  146
-8.416863 -12.586073 -29.901421  144  157  141
-8.416863 -12.685554 -29.901421  138  151  135
-8.416863 -12.785034 -29.901421  129  143  121
-8.416863 -12.884515 -29.901421  121  135  113
-8.416863 -12.983995 -29.901421  114  130  100
-8.475449 -13.210413 -30.226900  108  125  94
-8.475436 -13.310949 -30.226827  101  121  78
-8.475421 -13.411481 -30.226742  97  116  74
-8.475416 -13.512036 -30.226718  87  111  55
-8.475415 -13.612599 -30.226713  83  107  51
-8.475415 -13.713163 -30.226713  76  103  35
-8.475416 -13.813728 -30.226713  70  97  29
-8.475416 -13.914293 -30.226713  65  94  17
-8.475416 -14.316552 -30.226713  58  85  0
-8.475416 -14.417117 -30.226713  82  109  3
-8.475416 -14.517682 -30.226713  114  130  64
-8.475416 -15.623894 -30.226713  92  112  105
-8.475416 -15.724459 -30.226713  96  120  96
-8.475416 -15.825024 -30.226713  81  104  80
-8.475416 -15.925589 -30.226713  91  103  87
-7.814321 4.105592 -26.072206  72  67  76
-7.814321 3.932159 -26.072206  95  87  74
-7.814321 3.758726 -26.072206  211  204  205
-7.493101 0.011510 -24.320096  152  150  151
-8.339786 -5.872696 -28.938383  167  166  175
-8.448191 -9.991256 -29.529679  120  46  0
-8.448191 -10.089497 -29.529679  131  74  44
-8.448191 -11.268393 -29.529679  141  146  161
-8.448191 -11.366635 -29.529679  140  146  161
-8.448191 -11.464876 -29.529679  141  146  158
-8.448191 -11.563117 -29.529679  142  147  159
-8.448191 -11.661359 -29.529679  139  142  151
-8.448191 -11.857841 -29.529679  126  128  133
-8.448191 -11.956083 -29.529679  118  120  125
-8.448191 -12.054324 -29.529679  110  115  116
-8.448191 -12.152565 -29.529679  105  110  111
-8.448191 -12.250807 -29.529679  98  106  105
-8.448191 -12.349048 -29.529679  95  102  101
-8.448191 -12.447289 -29.529679  91  104  87
-8.516343 -12.685554 -29.901421  83  96  80
-8.516343 -12.785034 -29.901421  73  87  66
-8.516343 -12.884515 -29.901421  68  82  61
-8.516343 -12.983995 -29.901421  66  83  52
-8.577968 -13.214569 -30.237557  66  82  52
-8.577950 -14.421736 -30.237455  98  124  18
-8.577950 -14.522337 -30.237455  129  144  79
-8.577950 -15.226541 -30.237455  131  139  140
-8.577950 -15.327142 -30.237455  103  117  121
-8.577950 -15.427742 -30.237455  50  64  68
-8.577950 -15.628943 -30.237455  7  26  19
-8.577950 -15.729544 -30.237455  10  33  9
-8.577950 -15.830144 -30.237455  13  36  13
-8.577950 -15.930745 -30.237455  54  66  50
-7.905210 4.631107 -26.094561  9  7  12
-7.905210 4.544316 -26.094561  10  8  12
-7.905210 4.457525 -26.094561  7  5  9
-7.905210 4.370734 -26.094561  11  8  12
-7.905210 4.023570 -26.094561  42  37  47
-7.905210 3.763197 -26.094561  210  202  205
-7.905210 3.589615 -26.094561  206  205  223
-7.905210 3.502824 -26.094561  154  154  171
-7.573977 0.011510 -24.320096  152  149  150
-8.462324 -5.894272 -29.079100  160  158  168
-8.464002 -5.992420 -29.088090  151  150  159
-8.464002 -6.089190 -29.088090  124  91  103
-8.464002 -6.185959 -29.088090  95  62  74
-8.529200 -9.964485 -29.437364  134  53  0
-8.529200 -10.062418 -29.437364  137  84  42
-8.529200 -10.552087 -29.437364  143  157  146
-8.529200 -10.650020 -29.437364  136  156  138
-8.626879 -10.913659 -29.960644  133  154  136
-8.628047 -11.015339 -29.966901  124  141  124
-8.628047 -11.115038 -29.966901  124  140  123
-8.628047 -11.214737 -29.966901  120  140  115
-8.628047 -11.314435 -29.966901  117  137  112
-8.628047 -11.414134 -29.966901  111  135  96
-8.628047 -11.513833 -29.966901  102  127  87
-8.628047 -11.613532 -29.966901  91  117  61
-8.648617 -11.751064 -30.077097  81  108  52
-8.650568 -11.854754 -30.087548  68  95  21
-8.653863 -12.061194 -30.105204  75  104  13
-8.655352 -12.164197 -30.113176  72  100  9
-8.657034 -12.267627 -30.122187  64  96  0
-8.658135 -12.369987 -30.128086  59  92  0
-8.662144 -14.283636 -30.149565  77  105  0
-8.662144 -14.383943 -30.149565  106  134  3
-8.662144 -15.186404 -30.149565  138  140  164
-8.662144 -15.487327 -30.149565  109  126  120
-8.662144 -15.587635 -30.149565  112  130  123
-8.662144 -15.687942 -30.149565  109  131  103
-8.662144 -15.788250 -30.149565  114  136  108
-8.662144 -15.888558 -30.149565  130  145  130
-8.662144 -15.988865 -30.149565  134  148  133
-10.430009 -27.687710 -39.620268  20  16  39
-7.995029 4.982201 -26.110497  9  8  14
-7.995029 4.808513 -26.110497  8  7  12
-7.995029 4.721669 -26.110497  5  4  9
-7.995029 4.287449 -26.110497  12  9  13
-7.995029 4.113761 -26.110497  35  30  40
-7.995029 4.026917 -26.110497  28  23  33
-7.995029 3.940073 -26.110497  37  28  17
-7.995029 3.853228 -26.110497  115  107  95
-7.995029 3.592696 -26.110497  202  201  219
-7.995029 3.505852 -26.110497  151  151  168
-7.995029 3.332164 -26.110497  150  151  149
-7.654853 0.011510 -24.320096  155  152  153
-8.670536 -10.030731 -29.665800  138  57  0
-8.724528 -10.212782 -29.949966  140  86  45
-8.729500 -10.320188 -29.976135  171  117  76
-8.729500 -10.519647 -29.976135  126  112  95
-8.729500 -10.619376 -29.976135  101  114  104
-8.729500 -10.719106 -29.976135  97  110  100
-8.729500 -10.818835 -29.976135  87  108  90
-8.737883 -10.932535 -30.020253  83  103  86
-8.741777 -11.038971 -30.040751  85  102  85
-8.742710 -11.140504 -30.045661  78  95  77
-8.743587 -11.241973 -30.050277  66  86  61
-8.743912 -11.342514 -30.051987  59  79  54
-8.744646 -11.443784 -30.055851  56  81  42
-8.753824 -14.164104 -30.104155  52  103  0
-8.753824 -15.466136 -30.104155  105  122  116
-8.753824 -15.566292 -30.104155  90  107  101
-8.753824 -15.666448 -30.104155  86  107  79
-8.753824 -15.766605 -30.104155  115  137  108
-8.753824 -15.866761 -30.104155  130  144  129
-8.023671 7.912364 -25.809451  180  187  206
-8.056642 7.887917 -25.979991  155  164  188
-8.056642 7.801508 -25.979991  124  134  157
-8.056642 7.715099 -25.979991  82  95  124
-8.067593 5.310374 -26.036638  4  5  10
-8.067593 5.223775 -26.036633  7  8  13
-8.067591 5.137176 -26.036627  9  10  14
-8.067590 5.050576 -26.036620  7  7  12
-8.067584 4.271189 -26.036588  14  11  16
-8.067584 4.184591 -26.036588  17  14  19
-8.067584 4.097993 -26.036588  30  25  35
-8.067584 3.924798 -26.036588  33  25  13
-8.067584 3.578407 -26.036588  210  209  227
-8.067584 3.491809 -26.036588  165  164  182
-8.664475 -5.901151 -29.123958  155  153  162
-8.664917 -5.998397 -29.126240  147  145  154
-8.664917 -6.095294 -29.126240  132  91  81
-8.664917 -6.192190 -29.126240  101  60  51
-8.664917 -6.289087 -29.126240  109  43  14
-8.664917 -6.385983 -29.126240  111  45  16
-8.664917 -6.482880 -29.126240  127  44  0
-8.664917 -6.579776 -29.126240  133  50  2
-8.664917 -6.676673 -29.126240  130  49  0
-8.664917 -6.773569 -29.126240  123  43  0
-8.664917 -6.870466 -29.126240  124  46  0
-8.664917 -6.967363 -29.126240  125  47  0
-8.664917 -7.064259 -29.126240  132  45  0
-8.664917 -7.161156 -29.126240  131  44  0
-8.664917 -7.258052 -29.126240  136  40  0
-8.664917 -7.354949 -29.126240  137  41  0
-8.664917 -7.451845 -29.126240  137  40  0
-8.664917 -7.548742 -29.126240  137  40  0
-8.664917 -7.645638 -29.126240  120  44  0
-8.744602 -8.126648 -29.538404  132  42  0
-8.816590 -10.101769 -29.910758  138  58  10
-8.818294 -10.303406 -29.919569  156  103  55
-8.818294 -10.402947 -29.919569  113  104  49
-8.818294 -10.502488 -29.919569  93  84  29
-8.818294 -10.602029 -29.919569  68  93  10
-8.818294 -10.701570 -29.919569  67  92  9
-8.846239 -14.147155 -30.064116  50  99  0
-8.846239 -15.147383 -30.064116  135  137  153
-8.846239 -15.247405 -30.064116  103  113  124
-8.846239 -15.347428 -30.064116  67  76  87
-8.846239 -15.447451 -30.064116  46  61  63
-8.846239 -15.547474 -30.064116  25  41  42
-8.846239 -15.647496 -30.064116  20  39  30
-8.846239 -15.747519 -30.064116  59  77  68
-8.846239 -15.847542 -30.064116  107  122  109
-8.118403 8.186764 -25.854661  153  158  174
-8.118403 8.100772 -25.854661  137  143  158
-8.118403 8.014781 -25.854661  118  125  144
-8.118403 7.928790 -25.854661  101  108  126
-8.118403 7.842798 -25.854661  90  100  124
-8.118403 7.756807 -25.854661  89  99  123
-8.118403 7.670816 -25.854661  81  94  124
-8.118403 7.584825 -25.854661  80  94  123
-8.149489 5.390675 -26.012727  5  6  11
-8.149511 4.092927 -26.012841  22  17  27
-8.149511 3.919890 -26.012841  23  14  3
-8.149511 3.833372 -26.012841  102  94  82
-8.745902 -5.985722 -29.045337  155  153  163
-8.745902 -6.082349 -29.045337  185  143  134
-8.745902 -6.178976 -29.045337  171  130  120
-8.745902 -6.275603 -29.045337  189  123  94
-8.745902 -6.372230 -29.045337  185  119  90
-8.745902 -6.468857 -29.045337  192  108  61
-8.745902 -6.565484 -29.045337  190  107  59
-8.745902 -6.662110 -29.045337  185  104  48
-8.745902 -6.758737 -29.045337  179  99  43
-8.745902 -6.855364 -29.045337  170  93  29
-8.745902 -6.951991 -29.045337  168  91  27
-8.745902 -7.048618 -29.045337  171  84  13
-8.745902 -7.145245 -29.045337  164  77  6
-8.745902 -7.241872 -29.045337  164  68  1
-8.745902 -7.338499 -29.045337  159  63  0
-8.761813 -7.451845 -29.126240  154  56  0
-8.761813 -7.548742 -29.126240  151  53  0
-8.927698 -10.019160 -29.969720  122  41  0
-8.937141 -10.132793 -30.017736  134  54  5
-8.937538 -10.333129 -30.019759  150  96  49
-8.944244 -14.142812 -30.053857  42  92  0
-8.944244 -15.142698 -30.053857  117  120  136
-8.944244 -15.242686 -30.053857  79  89  100
-8.944244 -15.342675 -30.053857  43  53  64
-8.944244 -15.442663 -30.053857  40  55  57
-8.944244 -15.542652 -30.053857  47  62  64
-8.944244 -15.642641 -30.053857  45  63  55
-8.944244 -15.742629 -30.053857  61  79  70
-8.944244 -15.842618 -30.053857  93  107  95
