ply
format ascii 1.0
element face 0
property list uint8 int32 vertex_indices
element vertex 1074
property float x
property float y
property float z
property uchar diffuse_red 
property uchar diffuse_green 
property uchar diffuse_blue 
end_header
-3.470333 -7.252655 -30.530075  139  123  123
-3.469730 -7.355441 -30.537940  114  98  98
-3.469218 -7.559575 -30.544626  71  53  56
-3.469218 -7.661073 -30.544626  71  52  55
-3.467632 -7.766363 -30.565309  68  49  52
-3.467184 -7.869022 -30.571156  58  40  40
-3.467184 -7.970608 -30.571156  55  37  38
-3.466221 -8.074622 -30.583711  51  35  34
-3.466221 -8.176251 -30.583711  49  33  33
-3.465089 -8.280833 -30.598480  49  36  36
-3.464617 -8.383762 -30.604631  53  39  40
-3.464617 -8.485460 -30.604631  55  43  46
-3.464617 -8.587158 -30.604631  57  45  48
-3.464617 -8.688856 -30.604631  58  48  38
-3.463530 -8.793627 -30.618810  58  47  37
-3.463015 -8.896853 -30.625538  54  42  34
-3.462517 -9.000069 -30.632026  48  36  27
-3.462022 -9.103324 -30.638487  45  31  25
-3.462022 -9.205135 -30.638487  45  31  25
-3.460993 -9.310076 -30.651902  46  31  27
-3.460285 -9.414118 -30.661138  44  29  25
-3.460285 -9.516004 -30.661138  54  39  37
-3.458636 -9.623125 -30.682647  54  39  37
-3.457916 -9.727401 -30.692043  53  40  40
-3.457130 -9.831952 -30.702290  55  43  42
-3.456365 -9.936503 -30.712265  57  47  47
-3.444957 -12.845685 -30.861067  59  39  25
-3.444931 -12.948359 -30.861411  63  42  29
-4.098060 7.200732 -23.353576  13  53  80
-4.098060 7.123204 -23.353576  12  47  70
-4.098060 7.045676 -23.353576  12  47  70
-4.108429 5.910795 -23.212183  11  12  11
-4.108429 5.833738 -23.212183  20  18  18
-4.108429 5.525511 -23.212183  31  24  21
-4.114099 4.808546 -23.134863  56  51  51
-4.114099 3.886958 -23.134864  217  214  224
-4.114099 3.733360 -23.134864  197  194  203
-3.590492 -4.594552 -30.274960  154  157  166
-3.590354 -4.695307 -30.276833  147  149  158
-3.590075 -4.796242 -30.280635  137  139  148
-3.590028 -4.896919 -30.281283  124  126  135
-3.590028 -4.997540 -30.281283  108  111  118
-3.590028 -5.098160 -30.281283  94  97  104
-3.590028 -5.198780 -30.281283  90  92  98
-3.590028 -5.299401 -30.281283  92  94  100
-3.579090 -7.236048 -30.430435  54  34  28
-3.576416 -7.343364 -30.466894  57  36  31
-3.573259 -7.857596 -30.509947  126  111  110
-3.573086 -7.959427 -30.512309  124  109  109
-3.573086 -8.060818 -30.512309  118  106  107
-3.572603 -8.163503 -30.518894  112  100  101
-3.571943 -8.266716 -30.527893  102  94  98
-3.571778 -8.368617 -30.530150  96  89  92
-3.571778 -8.470067 -30.530150  91  85  92
-3.571027 -8.573666 -30.540381  89  84  90
-3.568237 -9.089711 -30.578430  83  77  68
-3.568237 -9.191322 -30.578430  78  73  63
-3.567143 -9.296415 -30.593353  75  68  61
-3.566647 -9.399676 -30.600116  72  65  58
-3.565861 -9.503931 -30.610832  60  52  48
-3.565861 -9.605650 -30.610832  58  51  47
-3.563897 -9.713974 -30.637610  54  48  46
-3.562173 -10.127322 -30.661128  49  46  47
-3.561548 -10.231452 -30.669650  50  47  47
-3.561548 -10.333367 -30.669650  44  39  37
-3.560573 -10.438870 -30.682937  45  40  39
-3.560253 -10.542024 -30.687308  46  40  39
-3.559981 -10.645023 -30.691013  45  39  38
-3.559613 -10.748414 -30.696032  46  38  37
-3.559281 -10.851699 -30.700556  47  38  37
-3.559281 -10.953717 -30.700556  46  35  33
-3.558560 -11.058587 -30.710392  43  32  30
-3.558161 -11.162235 -30.715837  52  38  35
-4.175588 7.355788 -23.353576  17  62  94
-4.175588 6.968147 -23.353576  29  59  76
-4.175588 6.890619 -23.353576  22  52  70
-4.175588 6.735563 -23.353576  30  53  65
-4.175588 6.658035 -23.353576  47  65  73
-4.175588 6.580507 -23.353576  57  75  83
-4.175588 6.502979 -23.353576  94  101  105
-4.175588 6.425451 -23.353576  101  108  112
-4.184930 6.298989 -23.220120  101  107  108
-4.185485 6.219022 -23.212183  80  86  87
-4.185485 6.141965 -23.212183  49  53  52
-4.185485 6.064908 -23.212183  21  25  24
-4.185485 5.987852 -23.212183  10  11  9
-4.185485 5.910795 -23.212183  6  7  6
-4.185485 5.602568 -23.212183  36  31  31
-4.185485 5.448454 -23.212183  36  29  26
-4.190841 5.115999 -23.135673  22  20  23
-4.190875 5.039045 -23.135186  27  23  25
-4.190875 4.962245 -23.135186  27  24  26
-4.190899 4.885340 -23.134846  31  26  27
-4.190898 4.808546 -23.134863  36  31  31
-4.190897 4.731751 -23.134875  40  34  34
-4.190897 4.654952 -23.134875  41  35  34
-4.191272 4.576581 -23.129518  37  31  31
-4.191268 3.808783 -23.129571  230  228  236
-4.191268 3.732001 -23.129571  217  214  222
-4.191268 3.655220 -23.129571  191  189  196
-3.690648 -5.098160 -30.281283  142  144  151
-3.690648 -5.299401 -30.281283  143  146  152
-3.687258 -6.312226 -30.329723  136  133  126
-3.687258 -6.413007 -30.329723  128  126  115
-3.687258 -6.513789 -30.329723  126  124  113
-3.682996 -6.724485 -30.390599  137  134  123
-3.682062 -6.827516 -30.403948  141  138  128
-3.681055 -6.930799 -30.418331  142  140  130
-3.680208 -7.033813 -30.430435  147  127  117
-3.680208 -7.134930 -30.430435  137  118  108
-3.680208 -7.236048 -30.430435  125  104  99
-3.677656 -7.343364 -30.466894  116  96  90
-3.676997 -7.446233 -30.476297  114  94  93
-3.676367 -7.549095 -30.485306  120  99  98
-3.677847 -7.646589 -30.464160  123  104  104
-3.677294 -7.749268 -30.472064  122  103  103
-3.676790 -7.851867 -30.479258  125  110  110
-3.675546 -8.260543 -30.497028  132  124  128
-3.675310 -8.362569 -30.500404  111  104  107
-3.675310 -8.463920 -30.500404  89  84  90
-3.668851 -9.601230 -30.592670  133  125  121
-3.667891 -9.706272 -30.606384  127  121  119
-3.665723 -10.121140 -30.637355  90  87  87
-3.665152 -10.225096 -30.645512  97  94  94
-3.664716 -10.328592 -30.651744  102  96  95
-3.664219 -10.432365 -30.658845  104  99  98
-3.663182 -10.742148 -30.673652  102  93  92
-3.662931 -10.845094 -30.677245  98  90  88
-3.662638 -10.948236 -30.681437  86  75  73
-3.662400 -11.051173 -30.684825  71  60  58
-3.660989 -11.159052 -30.704985  66  53  49
-3.659633 -11.266831 -30.724355  60  46  43
-3.658304 -11.374627 -30.743348  54  38  33
-3.658143 -11.477485 -30.745648  49  34  28
-3.657990 -11.580322 -30.747828  50  33  26
-3.657841 -11.683160 -30.749964  51  34  27
-3.657841 -11.785343 -30.749964  52  35  26
-3.657841 -11.887525 -30.749964  52  34  25
-3.657841 -11.989708 -30.749964  60  44  34
-3.657841 -12.091891 -30.749964  64  48  38
-3.657841 -12.194073 -30.749964  65  47  38
-3.657841 -12.296256 -30.749964  61  42  34
-3.655842 -12.407958 -30.778523  60  38  29
-3.655372 -12.512497 -30.785237  59  38  29
-3.654891 -12.719457 -30.792109  53  30  18
-3.654421 -12.824106 -30.798820  47  26  12
-3.653924 -12.928936 -30.805919  50  29  16
-3.653407 -13.033915 -30.813305  51  34  23
-3.653381 -13.136442 -30.813678  52  35  25
-4.253116 6.813091 -23.353576  20  59  90
-4.253116 6.735563 -23.353576  17  55  87
-4.253116 6.658035 -23.353576  12  47  76
-4.253116 6.580507 -23.353576  5  40  69
-4.253116 6.502979 -23.353576  15  45  68
-4.253116 6.425451 -23.353576  24  53  76
-4.262013 6.298989 -23.220120  45  73  92
-4.262542 6.219022 -23.212183  73  100  119
-4.262542 6.141965 -23.212183  94  118  133
-4.262542 5.987852 -23.212183  59  78  90
-4.262542 5.910795 -23.212183  30  49  61
-4.262542 5.833738 -23.212183  15  28  39
-4.262542 5.756681 -23.212183  11  24  36
-4.262542 5.679625 -23.212183  12  19  29
-4.267643 5.115999 -23.135673  14  16  21
-4.270182 3.647117 -23.097584  212  209  213
-4.270182 3.570442 -23.097584  178  175  179
-4.270182 3.493767 -23.097584  146  145  147
-3.791269 -5.198780 -30.281283  139  139  147
-3.781325 -7.236048 -30.430435  153  143  144
-3.778895 -7.343364 -30.466894  154  143  145
-3.778268 -7.446233 -30.476297  156  144  150
-3.777667 -7.549095 -30.485306  155  143  149
-3.779077 -7.646589 -30.464160  151  139  145
-3.778550 -7.749268 -30.472064  148  137  143
-3.773483 -8.372261 -30.548072  128  126  133
-3.773483 -8.473771 -30.548072  129  128  138
-3.773483 -8.575281 -30.548072  132  131  140
-3.773483 -8.676791 -30.548072  123  129  119
-3.770794 -8.787038 -30.588401  118  123  113
-3.770446 -8.889833 -30.593632  109  113  104
-3.770109 -8.992621 -30.598673  99  103  95
-3.770109 -9.195978 -30.598673  99  101  95
-3.766656 -9.818998 -30.650473  91  90  94
-3.766085 -9.923020 -30.659042  58  58  64
-3.765849 -10.025807 -30.662578  31  32  38
-3.765560 -10.128827 -30.666919  17  19  25
-3.764390 -10.439281 -30.684459  32  33  24
-3.763619 -10.544409 -30.696034  47  47  36
-3.763619 -10.646412 -30.696034  67  68  56
-3.763619 -10.748415 -30.696034  96  96  79
-3.760893 -11.066282 -30.736926  111  109  83
-3.760343 -11.170840 -30.745170  105  101  64
-3.758737 -11.280152 -30.769254  97  94  57
-3.758235 -11.384661 -30.776795  90  86  37
-3.756777 -11.493568 -30.798667  84  80  31
-3.756414 -11.597580 -30.804104  85  80  20
-3.756061 -11.701586 -30.809403  86  81  22
-3.756061 -11.803967 -30.809403  88  83  18
-3.756061 -11.906347 -30.809403  89  84  18
-3.756061 -12.008728 -30.809403  81  67  64
-3.753445 -12.636353 -30.848636  96  72  65
-3.753445 -12.738864 -30.848636  104  80  73
-3.752799 -13.152369 -30.858331  87  71  66
-3.752799 -13.254913 -30.858331  76  66  68
-3.751471 -13.364696 -30.878255  72  63  65
-3.751413 -13.467624 -30.879122  67  62  70
-3.751413 -13.570237 -30.879122  66  61  69
-3.751413 -13.672850 -30.879122  57  47  55
-3.751413 -13.775464 -30.879122  55  45  53
-3.751413 -13.878077 -30.879122  52  42  51
-3.751413 -13.980690 -30.879122  48  38  48
-3.751413 -14.083303 -30.879122  44  35  46
-3.751413 -14.185917 -30.879122  42  32  43
-3.751413 -14.288530 -30.879122  40  31  40
-3.751413 -14.391143 -30.879122  39  30  39
-3.751413 -14.493756 -30.879122  37  30  34
-4.330644 6.890619 -23.353576  11  54  88
-4.330644 6.580507 -23.353576  19  54  83
-4.330644 6.502979 -23.353576  19  48  71
-4.330644 6.425451 -23.353576  20  50  73
-4.339096 6.298989 -23.220120  22  50  69
-4.339599 6.141965 -23.212183  32  56  70
-4.339599 6.064908 -23.212183  50  74  89
-4.339599 5.987852 -23.212183  79  98  110
-4.339599 5.910795 -23.212183  97  116  128
-4.339599 5.756681 -23.212183  67  79  91
-4.339599 5.679625 -23.212183  46  53  63
-4.339599 5.602568 -23.212183  21  28  38
-4.339599 5.525511 -23.212183  8  11  16
-4.339599 5.448454 -23.212183  6  9  14
-4.339599 5.371397 -23.212183  16  17  19
-4.344404 5.193008 -23.136321  13  15  20
-4.344566 3.733075 -23.133753  228  224  229
-4.344566 3.656279 -23.133753  223  220  223
-4.344566 3.579484 -23.133753  193  191  194
-3.871788 -8.992621 -30.598673  144  148  139
-3.871788 -9.094299 -30.598673  142  143  138
-3.871788 -9.195978 -30.598673  136  137  131
-3.871788 -9.297656 -30.598673  133  133  130
-3.868507 -9.818998 -30.650473  138  137  141
-3.867964 -9.923020 -30.659042  134  135  140
-3.867741 -10.025807 -30.662578  129  130  135
-3.867466 -10.128827 -30.666919  122  124  130
-3.867157 -10.232018 -30.671798  117  119  125
-3.866955 -10.334788 -30.674978  86  87  79
-3.866355 -10.439281 -30.684459  73  74  65
-3.865622 -10.544409 -30.696034  56  57  45
-3.865622 -10.646412 -30.696034  51  52  40
-3.865622 -10.748415 -30.696034  73  72  55
-3.860984 -11.280152 -30.769254  132  128  91
-3.860507 -11.384661 -30.776795  127  123  74
-3.859122 -11.493568 -30.798667  122  117  68
-3.858777 -11.597580 -30.804104  120  115  56
-3.858442 -11.701586 -30.809403  119  114  54
-3.858442 -11.803967 -30.809403  118  113  48
-3.858442 -11.906347 -30.809403  117  112  47
-3.858442 -12.008728 -30.809403  109  95  92
-3.858442 -12.111109 -30.809403  99  85  81
-3.847569 -13.299102 -30.981079  123  113  115
-3.847642 -13.401636 -30.979925  126  116  118
-3.847710 -13.504190 -30.978848  120  114  123
-3.847710 -13.607136 -30.978848  117  111  119
-3.847710 -13.710081 -30.978848  122  112  120
-3.847710 -13.813027 -30.978848  120  110  117
-3.847710 -13.915973 -30.978848  115  105  115
-3.847710 -14.018918 -30.978848  110  100  110
-3.847710 -14.121864 -30.978848  106  96  107
-3.847710 -14.224810 -30.978848  103  93  104
-3.847710 -14.327755 -30.978848  100  92  100
-3.847710 -14.430701 -30.978848  100  91  100
-3.847710 -14.533647 -30.978848  95  89  93
-3.847710 -14.636592 -30.978848  92  85  90
-3.847710 -14.739538 -30.978848  87  81  83
-3.847710 -14.842484 -30.978848  82  76  78
-3.847710 -14.945429 -30.978848  76  71  74
-3.847710 -15.048375 -30.978848  71  66  69
-3.847710 -15.151321 -30.978848  66  61  66
-3.847710 -15.254266 -30.978848  62  57  62
-3.847710 -15.357212 -30.978848  53  48  52
-3.847710 -15.460158 -30.978848  50  44  48
-3.847710 -15.563103 -30.978848  47  40  40
-3.847710 -15.666049 -30.978848  43  36  36
-3.847710 -15.768995 -30.978848  42  34  28
-3.847710 -15.871940 -30.978848  41  32  27
-3.847710 -15.974886 -30.978848  42  32  23
-3.847710 -16.077832 -30.978848  42  32  23
-3.847710 -16.180777 -30.978848  42  31  23
-3.847710 -16.283723 -30.978848  41  29  21
-3.847710 -16.386669 -30.978848  39  27  23
-3.847710 -16.489614 -30.978848  38  26  22
-3.849363 -16.580381 -30.952750  38  26  29
-3.644471 -18.203756 -34.187892  38  27  29
-4.408172 6.735563 -23.353576  11  60  106
-4.408172 6.658035 -23.353576  14  61  107
-4.408172 6.580507 -23.353576  15  61  107
-4.408172 6.502979 -23.353576  10  58  96
-4.416656 6.219022 -23.212183  7  52  85
-4.416656 6.141965 -23.212183  8  49  77
-4.416656 5.910795 -23.212183  19  53  77
-4.416656 5.833738 -23.212183  43  69  91
-4.416656 5.756681 -23.212183  57  82  104
-4.416656 5.525511 -23.212183  61  74  88
-4.416656 5.448454 -23.212183  37  50  64
-4.416656 5.371397 -23.212183  33  44  53
-4.416656 5.294341 -23.212183  40  50  59
-4.426651 4.016451 -23.045586  9  12  20
-4.426651 3.557442 -23.045586  217  214  214
-4.426651 3.404439 -23.045586  153  150  149
-4.318240 1.368379 -24.852450  152  152  162
-3.992777 -4.695307 -30.276833  160  157  169
-3.992549 -4.796242 -30.280635  158  155  167
-4.009575 -4.871321 -29.996865  153  149  161
-4.004153 -5.379323 -30.087232  142  141  143
-4.002730 -5.481905 -30.110946  142  141  143
-3.976282 -10.200406 -30.551751  137  142  154
-3.976282 -10.301928 -30.551751  149  149  170
-3.976282 -10.403450 -30.551751  143  143  164
-3.976282 -10.504972 -30.551751  135  134  155
-3.976282 -10.606494 -30.551751  128  127  149
-3.976282 -10.708016 -30.551751  131  127  149
-3.976282 -10.809538 -30.551751  135  131  154
-3.965183 -12.291887 -30.736725  143  126  128
-3.965183 -12.394026 -30.736725  136  114  114
-3.965183 -12.496164 -30.736725  123  101  101
-3.958157 -12.638116 -30.853821  115  91  88
-3.957968 -12.741729 -30.856979  111  87  84
-3.957879 -12.844780 -30.858456  117  95  91
-3.957340 -13.976213 -30.867443  119  113  126
-3.957340 -14.283936 -30.867443  114  110  122
-3.957340 -14.386510 -30.867443  114  110  121
-3.957340 -14.489085 -30.867443  113  111  118
-3.957340 -14.591659 -30.867443  112  110  117
-3.957340 -14.694233 -30.867443  111  110  115
-3.957340 -14.796808 -30.867443  112  111  116
-3.957340 -14.899382 -30.867443  113  112  118
-3.957340 -15.001956 -30.867443  113  113  119
-3.957340 -15.104531 -30.867443  112  112  120
-3.957340 -15.207105 -30.867443  111  110  119
-3.957340 -15.309679 -30.867443  119  117  124
-3.957340 -15.412254 -30.867443  116  114  121
-3.957340 -15.514828 -30.867443  113  109  112
-3.957340 -15.617402 -30.867443  108  104  107
-3.957340 -15.719977 -30.867443  105  100  97
-3.957340 -15.822551 -30.867443  102  97  94
-3.957340 -15.925125 -30.867443  101  95  88
-3.950656 -16.077832 -30.978848  100  93  86
-3.950656 -16.180777 -30.978848  103  95  89
-3.950656 -16.283723 -30.978848  99  91  85
-3.950656 -16.386669 -30.978848  93  85  84
-3.950656 -16.489614 -30.978848  88  80  79
-3.952222 -16.580381 -30.952750  84  76  82
-3.758113 -18.203756 -34.187892  80  72  78
-3.758169 -18.316954 -34.186953  74  66  77
-3.758223 -18.430165 -34.186054  69  61  72
-3.758274 -18.543395 -34.185207  59  53  56
-3.863183 -17.811932 -32.436731  57  51  54
-3.864462 -17.909360 -32.415409  53  47  51
-3.866054 -18.004095 -32.388879  49  42  46
-3.894109 -17.881069 -31.921302  44  37  42
-3.894342 -17.985223 -31.917408  40  32  37
-3.894570 -18.089395 -31.913605  37  28  34
-3.904941 -18.108460 -31.740764  35  26  32
-3.913417 -18.142369 -31.599495  29  19  24
-3.913540 -18.246340 -31.597449  27  17  22
-3.916154 -18.328980 -31.553875  25  14  17
-3.916199 -18.433459 -31.553134  25  13  16
-3.919060 -18.513520 -31.505442  26  15  15
-4.485700 6.425451 -23.353576  12  60  98
-4.493263 6.298989 -23.220120  14  59  92
-4.493712 6.219022 -23.212183  13  58  91
-4.493712 5.679625 -23.212183  40  58  77
-4.493712 5.602568 -23.212183  56  74  93
-4.493712 5.525511 -23.212183  71  84  97
-4.493712 5.448454 -23.212183  78  92  105
-4.493712 5.294341 -23.212183  114  125  134
-4.498011 5.193008 -23.136321  118  123  130
-4.498048 5.115999 -23.135673  90  95  102
-4.498076 5.039045 -23.135186  55  58  64
-4.505823 3.927384 -22.998467  1  0  0
-4.505823 3.698351 -22.998467  174  169  171
-4.505823 3.622007 -22.998467  220  216  216
-4.505823 3.469318 -22.998467  197  194  193
-4.106910 -4.675414 -30.038108  122  119  131
-4.106095 -4.776471 -30.052499  91  88  100
-4.105508 -4.877261 -30.062858  89  86  98
-4.105062 -4.977888 -30.070726  122  118  129
-4.103729 -5.280073 -30.094239  143  140  150
-4.097069 -7.400380 -30.211765  140  139  154
-4.097069 -7.500769 -30.211765  136  135  150
-4.097069 -7.601158 -30.211765  137  134  148
-4.097069 -7.701547 -30.211765  146  142  156
-4.085871 -9.455585 -30.409389  143  145  152
-4.053601 -16.386669 -30.978848  111  103  102
-4.053601 -16.489614 -30.978848  111  103  102
-4.055080 -16.580381 -30.952750  113  105  111
-3.871756 -18.203756 -34.187892  115  107  113
-3.871809 -18.316954 -34.186953  113  105  116
-3.871860 -18.430165 -34.186054  110  102  113
-3.871908 -18.543395 -34.185207  111  105  108
-3.970988 -17.811932 -32.436731  110  104  107
-3.972196 -17.909360 -32.415409  109  103  107
-3.973700 -18.004095 -32.388879  108  101  105
-4.000196 -17.881069 -31.921302  107  99  104
-4.000416 -17.985223 -31.917408  105  97  103
-4.000632 -18.089395 -31.913605  105  96  102
-4.010426 -18.108460 -31.740764  104  95  101
-4.018431 -18.142369 -31.599495  95  84  89
-4.018547 -18.246340 -31.597449  94  83  88
-4.021017 -18.328980 -31.553875  93  81  84
-4.021059 -18.433459 -31.553134  88  77  80
-4.023761 -18.513520 -31.505442  80  68  69
-4.021909 -18.635328 -31.538131  67  55  55
-4.031521 -18.650798 -31.368500  53  41  40
-4.031582 -18.754470 -31.367419  44  32  30
-4.033915 -18.836754 -31.326249  27  18  20
-4.034020 -18.939865 -31.324400  25  16  18
-4.684723 10.897619 -21.075554  195  195  194
-4.683507 9.791653 -21.098342  5  9  3
-4.683507 9.721642 -21.098342  7  13  6
-4.683507 9.651631 -21.098342  11  17  10
-4.683507 9.581621 -21.098342  42  49  48
-4.563228 7.898485 -23.353576  18  76  115
-4.563228 7.820956 -23.353576  22  80  119
-4.563228 7.743428 -23.353576  36  80  112
-4.570769 6.219022 -23.212183  10  58  91
-4.580808 3.704893 -23.023956  131  129  141
-4.580808 3.475605 -23.023956  213  217  221
-4.580808 3.399176 -23.023956  172  176  180
-4.483289 1.368379 -24.852446  169  168  180
-4.483289 1.285855 -24.852446  152  151  162
-4.483289 1.203330 -24.852446  135  134  145
-4.207027 -4.475353 -30.032358  159  154  159
-4.207019 -4.575156 -30.032509  167  155  155
-4.207119 -4.674790 -30.030620  137  125  125
-4.207130 -4.774556 -30.030411  113  88  78
-4.206765 -4.874957 -30.037262  98  73  62
-4.206490 -4.975246 -30.042424  121  80  57
-4.206490 -5.075070 -30.042424  151  110  87
-4.206490 -5.174894 -30.042424  187  135  102
-4.206490 -5.674016 -30.042424  178  147  143
-4.206490 -5.773840 -30.042424  168  160  136
-4.199274 -7.093652 -30.177710  161  148  140
-4.199044 -7.395227 -30.182035  126  127  143
-4.200021 -7.492280 -30.163714  87  88  104
-4.200021 -7.692737 -30.163714  123  82  67
-4.200021 -7.792966 -30.163714  174  127  102
-4.186090 -9.661510 -30.424919  147  145  148
-4.185197 -9.766793 -30.441654  144  142  144
-4.184529 -9.871126 -30.454196  145  137  147
-4.128462 -18.513520 -31.505442  115  113  119
-4.126719 -18.635328 -31.538131  113  111  118
-4.135766 -18.650798 -31.368500  111  109  115
-4.135823 -18.754470 -31.367419  110  108  114
-4.138019 -18.836754 -31.326249  80  73  87
-4.138118 -18.939865 -31.324400  65  58  72
-4.142689 -18.997682 -31.238696  44  37  50
-4.147127 -19.056275 -31.155470  25  18  30
-4.155982 -19.069045 -30.989439  17  8  18
-4.161923 -19.623808 -30.878044  44  30  31
-4.161924 -19.726412 -30.878035  44  30  31
-4.759284 10.839941 -20.983023  190  190  190
-4.750975 9.610101 -21.149199  0  4  3
-4.750975 9.539921 -21.149199  3  10  9
-4.682303 7.613171 -22.522642  13  70  108
-4.682303 7.538413 -22.522642  37  95  134
-4.682303 7.463655 -22.522642  64  123  162
-4.682303 7.388896 -22.522642  49  92  124
-4.682303 7.314138 -22.522642  33  77  108
-4.647826 5.448454 -23.212183  7  51  81
-4.651676 5.039045 -23.135186  20  48  66
-4.652555 3.882413 -23.117603  13  9  24
-4.652555 3.728930 -23.117603  75  73  85
-4.652555 3.652188 -23.117603  164  166  173
-4.652555 3.575447 -23.117603  215  217  224
-4.652555 3.498705 -23.117603  228  232  236
-4.652555 3.421964 -23.117603  199  203  208
-4.652555 3.191739 -23.117603  148  151  156
-4.565813 1.285855 -24.852446  160  159  170
-4.307900 -4.573411 -30.010704  137  125  125
-4.307900 -4.673130 -30.010704  117  105  105
-4.307900 -4.772848 -30.010704  102  77  67
-4.307900 -4.872567 -30.010704  84  59  48
-4.307900 -5.072004 -30.010704  88  46  23
-4.307900 -5.171723 -30.010704  112  60  28
-4.307900 -5.271441 -30.010704  132  80  47
-4.307900 -5.570597 -30.010704  140  109  105
-4.307900 -5.670315 -30.010704  116  85  81
-4.307900 -5.770034 -30.010704  113  105  81
-4.307900 -5.869752 -30.010704  157  149  124
-4.307900 -6.866937 -30.010704  154  150  154
-4.307900 -6.966656 -30.010704  163  150  142
-4.307900 -7.066374 -30.010704  151  137  129
-4.307900 -7.166093 -30.010704  127  137  155
-4.307900 -7.265811 -30.010704  136  146  164
-4.296241 -7.405947 -30.243879  148  149  165
-4.296767 -7.504586 -30.233368  137  138  154
-4.296425 -7.606278 -30.240210  139  98  83
-4.296155 -7.707749 -30.245595  108  68  52
-4.296155 -7.808250 -30.245595  120  73  48
-4.296155 -7.908752 -30.245595  154  107  82
-4.296155 -8.009253 -30.245595  155  146  144
-4.296155 -8.210256 -30.245595  145  159  172
-4.296155 -8.310758 -30.245595  138  152  164
-4.296155 -8.411259 -30.245595  148  153  157
-4.291666 -8.530615 -30.335376  150  155  160
-4.291271 -8.633103 -30.343289  164  148  153
-4.290632 -8.736698 -30.356062  171  155  160
-4.290234 -8.839318 -30.364019  161  156  163
-4.290234 -8.940215 -30.364019  160  156  162
-4.290234 -9.041111 -30.364019  150  158  164
-4.290234 -9.545592 -30.364019  96  103  103
-4.290234 -9.646488 -30.364019  80  78  80
-4.290234 -9.747384 -30.364019  84  83  85
-4.290234 -9.848281 -30.364019  121  112  122
-4.242123 -18.836754 -31.326249  134  128  141
-4.242215 -18.939865 -31.324400  128  121  135
-4.246500 -18.997682 -31.238696  117  110  122
-4.250662 -19.056275 -31.155470  102  94  107
-4.258963 -19.069045 -30.989439  81  73  83
-4.262825 -19.129542 -30.912194  53  45  55
-4.262692 -19.233743 -30.914865  26  16  24
-4.266337 -19.398378 -30.841954  25  13  17
-4.266337 -19.910835 -30.841972  46  31  31
-4.778341 7.340816 -22.066647  48  94  128
-4.778341 7.194339 -22.066647  101  158  187
-4.778341 7.121101 -22.066647  68  125  154
-4.728476 5.039045 -23.135186  22  59  84
-4.728476 4.962245 -23.135186  0  36  61
-4.717196 3.485058 -23.376895  219  215  218
-4.648337 1.285855 -24.852446  170  169  179
-4.407620 -4.473691 -30.010679  161  160  171
-4.407620 -4.573409 -30.010679  169  163  170
-4.407620 -4.673128 -30.010679  166  160  167
-4.407620 -4.772846 -30.010679  165  148  146
-4.407620 -4.872565 -30.010679  151  134  132
-4.407620 -4.972283 -30.010679  137  106  94
-4.407620 -5.072002 -30.010679  106  75  62
-4.407620 -5.271438 -30.010679  129  88  67
-4.407620 -5.371157 -30.010679  165  106  49
-4.407620 -5.470875 -30.010679  200  141  84
-4.407620 -5.570594 -30.010679  171  146  113
-4.407620 -5.670312 -30.010679  123  98  65
-4.407620 -5.770031 -30.010679  96  68  46
-4.407620 -5.869749 -30.010679  118  90  68
-4.407620 -5.969467 -30.010679  165  125  109
-4.407620 -6.866933 -30.010679  126  130  144
-4.407620 -6.966652 -30.010679  100  78  88
-4.407620 -7.166089 -30.010679  77  32  16
-4.407620 -7.265807 -30.010679  100  55  39
-4.396737 -7.405947 -30.243879  116  63  25
-4.397227 -7.504586 -30.233368  115  61  24
-4.393451 -7.619615 -30.314303  105  61  19
-4.393279 -7.721020 -30.317981  94  51  8
-4.393091 -7.923270 -30.322006  123  80  33
-4.393091 -8.124782 -30.322006  196  142  96
-4.393091 -8.225538 -30.322006  185  141  118
-4.391546 -8.333026 -30.355111  154  110  87
-4.391546 -8.433892 -30.355111  95  74  83
-4.391546 -8.534759 -30.355111  95  74  83
-4.391546 -8.635625 -30.355111  102  60  28
-4.391546 -9.039092 -30.355111  140  111  100
-4.391546 -9.240825 -30.355111  172  141  136
-4.391546 -9.543424 -30.355111  138  102  93
-4.391546 -9.644291 -30.355111  111  69  53
-4.391546 -9.745157 -30.355111  94  52  36
-4.391546 -9.846024 -30.355111  106  63  41
-4.391546 -9.946890 -30.355111  123  80  58
-4.391546 -10.047757 -30.355111  142  101  76
-4.386018 -10.179820 -30.473580  169  128  103
-4.385875 -10.281895 -30.476629  153  146  119
-4.385668 -10.485650 -30.481064  160  147  151
-4.385668 -10.586937 -30.481064  152  139  144
-4.385668 -10.688223 -30.481064  150  133  135
-4.385668 -10.789510 -30.481064  152  136  138
-4.385668 -10.890796 -30.481064  155  134  137
-4.384287 -11.000668 -30.510670  156  136  138
-4.384287 -11.102053 -30.510670  165  139  166
-4.383820 -11.206406 -30.520675  168  142  169
-4.383820 -11.814917 -30.520675  141  138  148
-4.383461 -11.918793 -30.528355  155  155  158
-4.383319 -12.021222 -30.531402  154  154  158
-4.383129 -12.124009 -30.535483  152  151  159
-4.383129 -12.225477 -30.535483  150  149  157
-4.383129 -12.326945 -30.535483  147  146  156
-4.354196 -19.056275 -31.155470  123  120  132
-4.361944 -19.069045 -30.989439  122  117  128
-4.365549 -19.129542 -30.912194  107  103  114
-4.365424 -19.233743 -30.914865  86  80  89
-4.368828 -19.295872 -30.841924  69  63  72
-4.372107 -19.768032 -30.771657  32  21  27
-4.372107 -19.870288 -30.771660  32  21  27
-4.372107 -19.972543 -30.771660  36  24  29
-4.891212 10.945307 -21.152059  191  192  191
-4.851579 7.340816 -22.066647  39  84  119
-4.851579 7.267577 -22.066647  59  104  139
-4.851579 7.121101 -22.066647  67  124  153
-4.851579 7.047862 -22.066647  28  87  115
-4.805291 4.885340 -23.134846  17  35  52
-4.805290 4.808546 -23.134863  5  22  40
-4.805290 4.731751 -23.134875  7  11  22
-4.805290 4.654952 -23.134875  5  9  20
-4.796442 3.863247 -23.339048  16  9  14
-4.796442 3.475848 -23.339048  219  214  217
-4.796442 3.320889 -23.339048  150  148  151
-4.796442 3.165930 -23.339048  147  148  153
-4.730862 1.203330 -24.852446  169  168  178
-4.730862 1.120806 -24.852446  150  149  158
-4.511840 -4.863215 -29.906797  179  161  160
-4.511840 -4.962587 -29.906797  174  143  131
-4.511840 -5.061960 -29.906797  137  106  93
-4.511840 -5.161332 -29.906797  119  77  57
-4.511840 -5.260704 -29.906797  121  80  60
-4.511840 -5.360076 -29.906797  179  120  63
-4.511840 -5.558820 -29.906797  188  163  130
-4.511840 -5.658193 -29.906797  161  136  103
-4.511840 -5.757565 -29.906797  122  94  73
-4.511840 -5.856937 -29.906797  100  72  50
-4.511840 -5.956309 -29.906797  129  90  73
-4.511840 -6.055681 -29.906797  172  133  116
-4.511840 -6.850658 -29.906797  143  147  161
-4.511840 -6.950031 -29.906797  135  113  123
-4.511840 -7.049403 -29.906797  92  70  80
-4.511840 -7.148775 -29.906797  104  60  43
-4.511840 -7.248147 -29.906797  145  100  84
-4.497233 -7.405947 -30.243879  194  140  103
-4.497688 -7.504586 -30.233368  206  152  115
-4.494181 -7.619615 -30.314303  178  135  92
-4.493098 -7.724926 -30.339287  145  102  59
-4.492943 -7.826409 -30.342871  120  77  29
-4.492943 -8.028060 -30.342871  128  75  28
-4.492943 -8.128886 -30.342871  158  105  58
-4.492943 -8.330537 -30.342871  164  120  97
-4.492943 -8.431363 -30.342871  86  66  74
-4.492943 -8.532189 -30.342871  79  58  67
-4.492943 -8.633014 -30.342871  128  87  55
-4.492943 -8.733840 -30.342871  151  109  77
-4.492943 -8.834666 -30.342871  157  122  100
-4.492943 -9.036317 -30.342871  108  79  69
-4.492943 -9.237969 -30.342871  109  78  73
-4.492943 -9.338795 -30.342871  136  105  100
-4.492943 -9.439620 -30.342871  171  135  126
-4.492943 -9.540446 -30.342871  159  122  114
-4.492943 -9.641272 -30.342871  142  100  84
-4.492943 -9.742098 -30.342871  121  79  63
-4.492943 -10.044575 -30.342871  93  51  26
-4.492943 -10.145401 -30.342871  118  77  52
-4.492943 -10.246226 -30.342871  137  130  103
-4.484206 -10.502990 -30.544500  115  102  106
-4.484100 -10.605166 -30.546953  80  67  71
-4.484100 -10.706672 -30.546953  65  49  51
-4.484100 -10.808178 -30.546953  72  56  58
-4.484100 -10.909684 -30.546953  77  57  59
-4.484100 -11.011190 -30.546953  75  54  57
-4.483651 -11.115730 -30.557294  82  56  83
-4.483559 -11.217904 -30.559430  98  72  99
-4.483559 -11.319451 -30.559430  127  107  121
-4.483559 -11.420999 -30.559430  151  131  145
-4.483559 -11.522547 -30.559430  152  144  136
-4.483559 -11.624094 -30.559430  151  144  136
-4.483559 -11.725642 -30.559430  122  119  128
-4.483559 -11.827189 -30.559430  83  80  90
-4.483559 -11.928737 -30.559430  66  66  69
-4.483559 -12.030285 -30.559430  67  67  70
-4.483797 -12.130036 -30.553931  75  74  82
-4.483683 -12.232433 -30.556561  90  89  97
-4.483683 -12.333971 -30.556561  108  107  117
-4.483683 -12.435509 -30.556561  126  125  135
-4.483683 -12.537047 -30.556561  143  142  149
-4.483683 -12.638585 -30.556561  154  153  160
-4.483683 -12.740123 -30.556561  151  152  155
-4.482180 -13.463720 -30.591239  138  136  167
-4.482180 -13.565375 -30.591241  152  146  157
-4.482180 -13.667028 -30.591241  150  144  155
-4.482180 -13.768682 -30.591241  149  146  155
-4.482180 -13.870335 -30.591241  150  147  157
-4.468157 -19.233743 -30.914865  129  123  132
-4.471317 -19.295872 -30.841924  125  119  128
-4.474363 -19.358999 -30.771634  95  87  95
-4.477796 -19.416626 -30.692414  61  53  61
-4.477797 -20.028562 -30.692397  33  21  27
-4.477797 -20.130553 -30.692397  39  28  28
-4.964395 10.898652 -21.077212  190  194  191
-4.964395 10.828712 -21.077212  91  93  92
-4.964395 10.688832 -21.077212  33  34  33
-4.952238 9.172361 -21.381140  10  12  17
-4.952238 9.101408 -21.381140  17  19  23
-4.952238 9.030455 -21.381140  35  38  48
-4.948749 8.791416 -21.468362  75  89  108
-4.948749 8.720172 -21.468362  56  70  89
-4.948749 8.648928 -21.468362  45  66  87
-4.948749 8.577684 -21.468362  35  56  77
-4.948749 7.010315 -21.468362  46  81  114
-4.948749 6.939071 -21.468362  38  95  129
-4.948749 6.867826 -21.468362  39  96  130
-4.882076 5.039045 -23.135186  29  74  106
-4.882076 4.962245 -23.135186  22  67  99
-4.882090 4.885340 -23.134846  35  61  86
-4.882089 4.731751 -23.134875  27  41  60
-4.882089 4.654952 -23.134875  17  31  50
-4.885662 4.551945 -23.045532  3  12  27
-4.873921 4.483089 -23.339065  0  3  14
-4.873079 3.868725 -23.360119  15  8  9
-4.873079 3.791175 -23.360119  8  1  2
-4.873079 3.403426 -23.360119  218  208  214
-4.873079 3.325876 -23.360119  171  161  166
-4.873079 3.170776 -23.360119  144  140  146
-4.873079 3.093226 -23.360119  157  161  167
-4.813386 1.120806 -24.852446  159  159  166
-4.813386 1.038282 -24.852446  142  142  149
-4.611823 -4.961161 -29.891514  176  159  159
-4.611823 -5.060482 -29.891514  153  136  136
-4.611823 -5.358446 -29.891514  144  82  46
-4.611823 -5.457767 -29.891514  181  119  84
-4.611823 -5.557088 -29.891514  184  153  146
-4.611823 -5.755731 -29.891514  154  115  130
-4.611823 -6.153016 -29.891514  165  148  121
-4.611823 -6.947585 -29.891514  142  147  159
-4.611823 -7.046907 -29.891514  112  117  129
-4.611823 -7.245549 -29.891514  129  89  69
-4.597729 -7.405947 -30.243879  177  123  95
-4.593912 -7.724926 -30.339287  185  162  155
-4.593769 -7.826409 -30.342871  161  146  142
-4.593769 -7.927234 -30.342871  119  105  101
-4.594350 -8.428360 -30.328340  149  130  123
-4.594350 -8.529137 -30.328340  143  124  118
-4.594350 -8.629914 -30.328340  153  140  117
-4.594350 -8.932246 -30.328340  179  167  160
-4.594350 -9.033024 -30.328340  168  153  167
-4.594350 -9.234578 -30.328340  122  100  126
-4.594350 -9.436133 -30.328340  111  82  103
-4.594350 -9.536910 -30.328340  143  114  135
-4.594350 -9.637687 -30.328340  179  149  154
-4.594350 -9.738465 -30.328340  180  150  155
-4.594350 -9.839242 -30.328340  145  121  110
-4.594350 -9.940019 -30.328340  103  79  67
-4.594350 -10.040797 -30.328340  91  73  52
-4.594350 -10.141574 -30.328340  120  103  81
-4.594350 -10.242351 -30.328340  168  144  93
-4.586707 -10.496132 -30.519411  152  120  114
-4.586619 -10.598157 -30.521619  114  82  76
-4.586517 -10.700293 -30.524169  107  76  48
-4.586517 -10.801723 -30.524169  137  106  77
-4.586517 -10.903153 -30.524169  163  131  91
-4.586517 -11.004583 -30.524169  171  139  99
-4.586248 -11.107987 -30.530900  166  124  129
-4.586163 -11.210071 -30.533027  143  101  106
-4.586163 -11.514450 -30.533027  128  104  63
-4.586163 -11.717369 -30.533027  129  104  103
-4.586163 -11.818829 -30.533027  93  68  68
-4.586163 -12.021748 -30.533027  136  76  43
-4.586163 -12.123207 -30.533027  132  89  46
-4.586324 -12.223339 -30.529003  129  85  43
-4.585947 -12.327924 -30.538421  106  79  33
-4.585947 -12.530879 -30.538421  100  75  47
-4.585947 -12.632357 -30.538421  110  85  57
-4.585947 -12.733835 -30.538421  147  117  115
-4.585947 -12.835312 -30.538421  167  136  135
-4.583234 -13.367571 -30.606250  117  122  120
-4.583234 -13.469274 -30.606250  93  97  96
-4.583234 -13.570978 -30.606250  94  94  101
-4.583232 -13.672695 -30.606284  96  97  103
-4.583230 -13.774423 -30.606348  102  105  110
-4.583230 -13.876127 -30.606348  111  114  120
-4.583229 -13.977840 -30.606371  118  123  128
-4.583229 -14.079546 -30.606377  127  133  138
-4.583229 -14.181250 -30.606377  139  145  150
-4.583229 -14.282954 -30.606377  150  156  161
-4.573807 -19.295872 -30.841924  128  126  137
-4.576618 -19.358999 -30.771634  135  131  144
-4.579787 -19.416626 -30.692414  112  108  121
-4.579788 -19.518611 -30.692403  80  75  88
-4.581302 -20.108339 -30.654534  33  21  34
-4.581302 -20.210204 -30.654534  34  22  35
-5.038809 10.822599 -20.955202  187  191  188
-5.038809 10.753066 -20.955202  90  92  91
-5.038809 10.613998 -20.955202  19  20  20
-5.024764 10.070029 -21.338263  16  12  15
-5.024764 9.999218 -21.338263  16  13  18
-5.021643 8.981601 -21.423368  3  6  16
-5.021643 8.910507 -21.423368  9  17  32
-5.021643 8.839413 -21.423368  36  44  59
-5.021643 8.768319 -21.423368  68  82  101
-5.021643 8.697225 -21.423368  94  108  127
-5.021643 8.555036 -21.423368  67  88  109
-5.021643 8.412848 -21.423368  38  65  90
-4.958876 5.039045 -23.135186  1  46  78
-4.962164 4.551945 -23.045532  42  52  66
-4.959522 4.496336 -23.117572  32  42  56
-4.945738 4.293378 -23.493504  0  4  12
-4.945738 3.825413 -23.493513  9  2  3
-4.945738 3.357446 -23.493513  196  185  191
-4.945738 3.123462 -23.493513  150  154  159
-4.713498 -5.054277 -29.827322  177  159  160
-4.713498 -5.153384 -29.827322  151  125  119
-4.713498 -5.450706 -29.827322  149  88  52
-4.713498 -5.549813 -29.827322  168  137  129
-4.713498 -6.045349 -29.827322  116  68  60
-4.713498 -6.144457 -29.827322  126  109  82
-4.713498 -6.937315 -29.827322  156  161  173
-4.698224 -7.405947 -30.243879  138  84  55
-4.698610 -7.504586 -30.233368  180  127  98
-4.696033 -7.819084 -30.303635  167  153  149
-4.696033 -7.919779 -30.303635  147  132  128
-4.694792 -8.228633 -30.337478  115  72  44
-4.694792 -8.329441 -30.337478  170  127  100
-4.693957 -8.434954 -30.360248  175  156  150
-4.693753 -8.537010 -30.365831  181  161  155
-4.693753 -8.637913 -30.365831  177  163  141
-4.693753 -8.738815 -30.365831  176  163  140
-4.693753 -8.839717 -30.365831  170  157  151
-4.693753 -9.142424 -30.365831  164  149  164
-4.693753 -9.243326 -30.365831  152  130  155
-4.693753 -9.344228 -30.365831  125  103  129
-4.693753 -9.546033 -30.365831  105  76  97
-4.693753 -9.646935 -30.365831  140  110  115
-4.693753 -9.848740 -30.365831  182  158  146
-4.693753 -9.949642 -30.365831  152  128  116
-4.693753 -10.050544 -30.365831  107  89  67
-4.693753 -10.252349 -30.365831  138  113  62
-4.693753 -10.353251 -30.365831  169  144  93
-4.689876 -10.584306 -30.471554  148  116  110
-4.689703 -10.686883 -30.476279  111  81  52
-4.689618 -10.890090 -30.478601  121  88  48
-4.689618 -10.991368 -30.478601  135  102  62
-4.689618 -11.092646 -30.478601  160  118  124
-4.688956 -11.503291 -30.496641  168  143  102
-4.688956 -11.705968 -30.496641  176  151  151
-4.688956 -11.807306 -30.496641  151  126  125
-4.688956 -11.908644 -30.496641  159  98  66
-4.688956 -12.009983 -30.496641  176  116  83
-4.688956 -12.111321 -30.496641  187  143  101
-4.688956 -12.212659 -30.496641  197  153  110
-4.687918 -12.323439 -30.524966  176  148  103
-4.687209 -12.532881 -30.544309  123  97  69
-4.687209 -12.634379 -30.544309  106  81  53
-4.687209 -12.735876 -30.544309  106  75  74
-4.687209 -12.837373 -30.544309  129  98  97
-4.687209 -12.938870 -30.544309  150  122  136
-4.684664 -13.370305 -30.613707  124  129  128
-4.684664 -13.472034 -30.613707  110  115  113
-4.684664 -13.573762 -30.613707  91  92  98
-4.684664 -13.675490 -30.613706  84  85  91
-4.684664 -13.777219 -30.613706  73  75  81
-4.684664 -13.878947 -30.613706  64  67  73
-4.684664 -13.980676 -30.613706  62  68  73
-4.684664 -14.285861 -30.613706  89  95  100
-4.684664 -14.387590 -30.613706  126  130  136
-4.684664 -14.489318 -30.613706  135  139  145
-4.681778 -19.416626 -30.692414  138  134  147
-4.684265 -19.480189 -30.624600  138  133  146
-4.684264 -19.581962 -30.624613  111  105  118
-4.684264 -19.683727 -30.624613  66  60  73
-4.684264 -20.192546 -30.624604  28  17  30
-4.684264 -20.294311 -30.624604  34  21  29
-5.103682 10.909750 -21.095016  188  191  187
-5.103682 10.699751 -21.095016  15  16  13
-5.098945 9.941238 -21.237135  12  8  15
-5.097018 9.267713 -21.294927  9  12  6
-5.097018 9.197047 -21.294927  5  9  3
-5.097018 8.773052 -21.294927  7  8  19
-5.097018 8.702386 -21.294927  6  12  25
-5.097018 8.631720 -21.294927  8  14  27
-5.097018 8.561054 -21.294927  62  73  86
-5.097018 8.490388 -21.294927  72  83  97
-5.097018 8.207724 -21.294927  37  55  76
-5.028881 4.483089 -23.339065  42  64  86
-5.023057 4.455112 -23.513782  29  51  73
-5.023057 4.377051 -23.513785  19  39  59
-5.023057 4.142865 -23.513785  0  11  30
-5.023057 4.064802 -23.513785  0  10  14
-5.023057 3.752554 -23.513785  4  0  10
-5.023057 3.362243 -23.513785  215  203  213
-5.023057 3.128057 -23.513785  143  143  145
-4.814962 -5.146314 -29.756620  173  162  165
-4.814962 -5.245186 -29.756620  138  126  129
-4.814962 -5.838415 -29.756620  189  146  146
-4.814962 -5.937287 -29.756620  126  104  106
-4.814962 -6.135030 -29.756620  113  80  54
-4.814962 -6.233901 -29.756620  155  122  96
-4.814962 -6.332773 -29.756620  183  150  131
-4.814962 -7.123745 -29.756620  165  152  151
-4.812605 -7.234636 -29.827322  114  101  101
-4.799070 -7.504586 -30.233368  118  89  87
-4.796041 -8.125222 -30.324243  105  101  111
-4.794681 -8.335045 -30.365042  112  93  86
-4.794681 -8.435945 -30.365042  174  135  108
-4.794351 -8.639857 -30.374946  147  131  111
-4.794351 -8.740790 -30.374946  144  128  108
-4.794351 -8.841722 -30.374946  147  129  122
-4.794351 -8.942655 -30.374946  164  146  139
-4.794351 -9.043588 -30.374946  181  157  165
-4.794351 -9.245453 -30.374946  192  159  172
-4.794351 -9.447318 -30.374946  137  97  105
-4.794351 -9.649184 -30.374946  127  87  83
-4.794351 -9.750116 -30.374946  163  123  119
-4.794351 -9.951982 -30.374946  172  142  125
-4.794351 -10.052914 -30.374946  135  113  91
-4.794351 -10.254780 -30.374946  112  68  64
-4.794351 -10.355712 -30.374946  150  106  102
-4.794351 -10.557577 -30.374946  189  147  135
-4.790440 -10.691366 -30.492290  149  107  91
-4.790377 -10.793220 -30.494158  108  66  50
-4.790303 -10.996528 -30.496395  104  59  39
-4.790303 -11.097866 -30.496395  120  74  48
-4.789878 -11.507121 -30.509131  103  60  54
-4.789878 -11.608501 -30.509131  118  75  69
-4.789878 -11.709881 -30.509131  149  110  108
-4.787453 -12.545657 -30.581883  147  153  162
-4.787194 -12.649951 -30.589666  132  138  147
-4.787194 -12.751600 -30.589666  116  102  92
-4.787194 -12.954896 -30.589666  119  99  75
-4.786380 -13.065248 -30.614068  155  134  111
-4.785546 -13.481433 -30.639111  143  151  144
-4.785546 -13.583241 -30.639098  146  155  157
-4.785546 -13.685054 -30.639098  151  160  162
-4.785546 -14.295933 -30.639096  111  123  124
-4.785546 -14.397746 -30.639096  95  103  106
-4.785546 -14.499559 -30.639096  117  125  127
-4.785546 -14.601372 -30.639096  139  141  145
-4.786029 -19.581962 -30.624613  131  128  144
-4.786029 -19.683727 -30.624613  125  120  138
-4.786029 -19.887256 -30.624613  51  46  65
-4.785464 -20.406193 -30.641561  32  22  37
-5.172429 11.005909 -21.136760  196  199  195
-5.171730 10.880079 -21.160063  100  102  99
-5.171461 10.815391 -21.169028  27  29  26
-5.171299 10.748455 -21.174424  16  17  14
-5.171147 10.681289 -21.179503  12  13  11
-5.171032 10.613344 -21.183354  11  11  9
-5.170908 10.545535 -21.187473  11  11  9
-5.170734 10.478710 -21.193278  11  10  9
-5.170559 10.411860 -21.199106  10  9  8
-5.170559 10.341514 -21.199106  11  9  8
-5.170559 10.271167 -21.199106  12  11  10
-5.170559 10.200821 -21.199106  13  10  4
-5.170559 8.934583 -21.199106  13  12  18
-5.170559 8.512504 -21.199106  0  3  17
-5.170559 8.442158 -21.199106  5  15  29
-5.170559 8.371811 -21.199106  24  39  55
-5.167684 8.349056 -21.294927  50  65  81
-5.167684 8.278390 -21.294927  68  86  106
-5.167684 8.066392 -21.294927  44  63  88
-5.167684 7.995726 -21.294927  20  55  87
-5.055583 5.550145 -25.031640  0  26  57
-5.100225 4.307228 -23.543566  39  59  79
-5.100225 4.229067 -23.543566  30  47  66
-5.100225 3.838260 -23.543566  0  0  7
-5.100225 3.760099 -23.543566  0  0  7
-5.100225 3.681937 -23.543566  2  0  9
-5.100225 3.369292 -23.543566  222  211  221
-5.100225 3.212969 -23.543566  144  136  143
-4.914698 -5.044657 -29.727802  152  146  154
-4.914698 -5.143432 -29.727802  142  130  133
-4.914698 -5.242208 -29.727802  109  97  100
-4.914698 -5.340983 -29.727802  93  74  42
-4.914698 -5.439759 -29.727802  89  70  38
-4.914698 -5.538534 -29.727802  128  78  50
-4.914698 -5.637310 -29.727802  162  112  84
-4.914698 -5.834861 -29.727802  197  154  153
-4.914698 -5.933636 -29.727802  162  139  141
-4.914698 -6.032412 -29.727802  124  102  104
-4.914698 -6.229963 -29.727802  117  84  58
-4.914698 -6.328738 -29.727802  155  121  102
-4.914698 -7.118942 -29.727802  164  151  151
-4.914698 -7.217718 -29.727802  137  124  124
-4.899531 -7.504586 -30.233368  94  65  63
-4.897423 -7.617695 -30.303635  138  110  114
-4.896805 -8.024458 -30.324243  158  153  164
-4.896805 -8.125222 -30.324243  141  137  147
-4.895888 -8.332965 -30.354812  81  63  55
-4.895679 -8.435272 -30.361785  143  104  77
-4.895380 -8.639171 -30.371728  140  124  104
-4.895380 -8.740093 -30.371728  105  89  69
-4.895380 -8.941936 -30.371728  106  88  81
-4.895380 -9.042858 -30.371728  146  122  130
-4.895380 -9.143780 -30.371728  177  153  160
-4.895380 -9.244702 -30.371728  196  163  177
-4.895380 -9.345624 -30.371728  189  156  170
-4.895380 -9.446546 -30.371728  170  130  138
-4.895380 -9.547468 -30.371728  115  74  82
-4.893449 -9.967681 -30.436114  198  167  151
-4.893449 -10.068818 -30.436114  181  159  136
-4.893449 -10.372228 -30.436114  120  76  71
-4.893449 -10.675637 -30.436114  189  146  130
-4.892016 -10.891600 -30.483867  129  85  64
-4.891927 -10.993755 -30.486833  125  81  60
-4.891927 -11.095061 -30.486833  165  119  93
-4.891927 -11.196366 -30.486833  199  153  128
-4.891825 -11.298694 -30.490239  208  162  144
-4.891600 -11.402291 -30.497755  189  143  125
-4.891600 -11.503633 -30.497755  160  117  111
-4.891600 -11.706317 -30.497755  112  73  71
-4.891600 -11.807659 -30.497755  126  88  86
-4.890689 -11.918716 -30.528114  128  116  96
-4.890689 -12.020159 -30.528114  125  113  93
-4.890689 -12.121602 -30.528114  108  111  110
-4.890689 -12.223045 -30.528114  111  114  113
-4.890689 -12.425932 -30.528114  138  152  167
-4.890689 -12.628818 -30.528114  142  147  157
-4.890689 -12.730261 -30.528114  128  115  104
-4.890689 -12.831705 -30.528114  94  81  70
-4.890689 -13.034591 -30.528114  122  101  77
-4.888069 -13.167470 -30.615436  150  142  123
-4.887314 -13.685622 -30.640605  120  128  130
-4.887315 -13.787426 -30.640566  102  112  114
-4.887315 -13.889242 -30.640561  91  101  103
-4.887315 -13.991060 -30.640561  94  106  107
-4.887315 -14.092878 -30.640561  100  112  113
-4.887315 -14.194696 -30.640561  90  102  103
-4.887315 -14.296514 -30.640561  73  84  85
-4.887315 -14.500150 -30.640561  94  102  105
-4.887315 -14.601968 -30.640561  126  128  132
-4.892416 -19.696644 -30.470543  127  123  141
-4.892416 -19.797896 -30.470543  99  93  112
-4.892416 -20.405401 -30.470538  33  21  25
-5.241974 11.019861 -21.159024  197  197  193
-5.241914 10.951060 -21.161289  195  195  191
-5.241914 10.880840 -21.161289  116  115  111
-5.241914 10.740399 -21.161289  7  5  1
-5.241914 10.670178 -21.161289  9  6  3
-5.241914 10.599958 -21.161289  5  2  0
-5.241914 10.529737 -21.161289  8  5  1
-5.241914 10.459517 -21.161289  12  8  4
-5.241914 10.389296 -21.161289  9  6  2
-5.241914 10.319076 -21.161289  11  7  3
-5.241914 10.248856 -21.161289  11  7  3
-5.241914 10.178635 -21.161289  8  7  0
-5.241914 10.108415 -21.161289  12  11  0
-5.241914 10.038194 -21.161289  8  6  0
-5.241914 9.967974 -21.161289  13  11  4
-5.241914 9.897753 -21.161289  15  12  14
-5.241914 9.827533 -21.161289  9  6  8
-5.241914 9.757312 -21.161289  10  6  17
-5.241914 9.687092 -21.161289  10  6  16
-5.241914 9.616871 -21.161289  12  9  22
-5.241914 9.546651 -21.161289  10  7  20
-5.241914 9.476430 -21.161289  9  7  18
-5.241914 9.406210 -21.161289  13  11  22
-5.241914 9.335989 -21.161289  6  5  11
-5.241914 9.265769 -21.161289  5  4  10
-5.241914 9.195549 -21.161289  14  14  16
-5.241914 9.125328 -21.161289  6  6  8
-5.241914 9.055108 -21.161289  10  13  18
-5.241914 8.984887 -21.161289  5  7  12
-5.241914 8.914667 -21.161289  11  13  21
-5.240906 8.864237 -21.199106  14  17  25
-5.240906 8.793890 -21.199106  5  8  18
-5.240906 8.723544 -21.199106  3  5  16
-5.240906 8.653197 -21.199106  8  11  21
-5.240906 8.582851 -21.199106  6  10  19
-5.190410 7.402148 -23.092706  47  94  137
-5.138705 5.633267 -25.031640  0  34  61
-5.178387 4.150906 -23.543566  28  64  97
-5.178387 4.072744 -23.543566  28  63  83
-5.178387 3.994583 -23.543566  19  54  74
-5.178387 3.916421 -23.543566  14  42  63
-5.178387 3.838260 -23.543566  0  20  41
-5.178387 3.760099 -23.543566  0  16  39
-5.178387 3.681937 -23.543566  0  2  25
-5.178387 3.603776 -23.543566  18  21  43
-5.178387 3.212969 -23.543566  163  158  165
-5.016390 -5.034086 -29.618450  152  152  161
-5.009981 -5.156531 -29.858792  127  124  129
-5.009570 -5.257333 -29.874172  101  98  103
-5.009114 -5.358424 -29.891304  89  69  51
-5.009114 -5.457744 -29.891304  87  67  49
-5.009114 -5.557065 -29.891304  116  70  29
-5.007644 -5.662815 -29.946421  151  105  64
-5.006756 -6.065162 -29.979722  158  134  143
-5.006306 -6.167025 -29.996585  127  91  68
-5.005885 -6.268853 -30.012366  93  57  34
-5.005565 -6.370256 -30.024359  116  78  37
-5.003259 -7.282835 -30.110844  166  152  162
-5.002623 -7.487156 -30.134711  107  82  73
