ply
format ascii 1.0
element face 0
property list uint8 int32 vertex_indices
element vertex 1084
property float x
property float y
property float z
property uchar diffuse_red 
property uchar diffuse_green 
property uchar diffuse_blue 
end_header
3.619470 -3.690440 -21.291001  158  151  160
3.619470 -3.761410 -21.291001  146  139  149
3.619470 -3.832380 -21.291001  129  120  116
3.619470 -3.903350 -21.291001  107  98  94
3.619470 -3.974320 -21.291001  112  80  57
3.614391 -4.393965 -21.261121  169  80  0
3.614517 -4.464992 -21.261867  210  121  38
3.614796 -4.607093 -21.263504  130  119  74
3.612860 -5.029668 -21.252117  79  136  0
3.613292 -5.101118 -21.254659  132  160  87
3.613715 -5.172573 -21.257149  148  176  102
3.616548 -5.531191 -21.273811  147  169  131
3.617337 -5.674255 -21.278454  96  139  22
3.619803 -6.387887 -21.292957  128  150  82
3.619914 -6.459061 -21.293609  147  170  102
3.621168 -6.816315 -21.300985  150  175  146
3.621168 -6.887319 -21.300985  122  146  118
3.621168 -7.313338 -21.300985  87  132  0
3.622626 -7.387316 -21.309566  111  143  37
3.622627 -7.955572 -21.309568  140  158  164
3.622627 -8.026604 -21.309568  116  134  139
3.622627 -8.381763 -21.309568  71  86  76
3.622627 -8.452795 -21.309568  94  109  100
3.622627 -8.523827 -21.309568  139  150  146
4.157932 -14.104357 -24.458423  134  131  154
3.548500 -3.690440 -21.291001  135  42  0
3.548500 -3.761410 -21.291001  137  44  0
3.548500 -3.832380 -21.291001  143  57  0
3.548500 -3.903350 -21.291001  147  61  0
3.542714 -4.322111 -21.256282  143  55  2
3.543308 -4.393702 -21.259846  156  64  6
3.543826 -4.465220 -21.262953  187  96  38
3.544241 -4.607513 -21.265444  157  128  101
3.542980 -5.101892 -21.257883  87  124  0
3.543175 -5.173035 -21.259049  104  142  1
3.543370 -5.244188 -21.260220  134  147  45
3.543787 -5.315680 -21.262720  150  164  61
3.544267 -5.387286 -21.265603  161  168  108
3.544649 -5.458759 -21.267894  166  172  112
3.545028 -5.601145 -21.270171  149  161  126
3.545180 -5.672287 -21.271078  109  129  113
3.547381 -6.385286 -21.284286  78  119  0
3.547654 -6.456730 -21.285923  106  146  5
3.548259 -6.528797 -21.289556  147  173  60
3.548773 -6.600718 -21.292639  165  192  79
3.549199 -6.672495 -21.295197  169  180  125
3.549944 -6.815892 -21.299662  160  171  174
3.550267 -6.887518 -21.301601  140  151  154
3.550267 -6.958523 -21.301601  112  136  91
3.550267 -7.029528 -21.301601  96  120  75
3.550267 -7.384555 -21.301601  93  128  3
3.551459 -7.458065 -21.308756  122  156  32
3.551454 -7.529082 -21.308722  153  169  95
3.551456 -7.955261 -21.308734  140  160  171
3.551456 -8.026290 -21.308734  106  126  137
3.551456 -8.097319 -21.308734  87  107  111
3.551456 -8.168348 -21.308734  87  107  111
3.551456 -8.452465 -21.308734  97  114  106
3.551456 -8.523494 -21.308734  116  129  125
4.114332 -14.235587 -24.685989  145  143  164
3.471641 -4.250988 -21.254942  148  59  6
3.471641 -4.392688 -21.254942  156  65  6
3.471641 -4.463538 -21.254942  176  85  26
3.471641 -4.534388 -21.254942  180  152  125
3.471641 -4.676087 -21.254942  126  136  67
3.471641 -5.172036 -21.254942  87  124  0
3.471641 -5.242886 -21.254942  92  106  4
3.471641 -5.313736 -21.254942  92  105  3
3.471641 -5.384585 -21.254942  103  110  49
3.471641 -5.455435 -21.254942  127  134  73
3.471641 -5.526285 -21.254942  151  163  128
3.471641 -5.667985 -21.254942  151  171  155
3.476701 -6.456730 -21.285923  81  121  0
3.477294 -6.528797 -21.289556  99  125  12
3.477798 -6.600718 -21.292639  120  147  34
3.482496 -6.680707 -21.321404  149  160  105
3.482623 -6.752024 -21.322180  158  169  114
3.482757 -6.823361 -21.323002  142  153  156
3.482652 -6.894230 -21.322361  123  134  137
3.482652 -6.965304 -21.322361  93  117  72
3.482652 -7.391752 -21.322361  89  123  0
3.483676 -7.465020 -21.328629  114  148  24
3.483674 -8.033778 -21.328615  136  156  168
3.483674 -8.104874 -21.328615  115  135  139
3.483674 -8.175969 -21.328615  82  102  106
3.483674 -8.318160 -21.328615  90  109  104
3.483674 -8.389255 -21.328615  102  119  111
3.483674 -8.460351 -21.328615  97  114  106
3.483674 -8.531446 -21.328615  108  121  116
3.483674 -8.602542 -21.328615  142  155  150
4.032045 -14.317874 -24.685989  142  138  169
3.400901 -4.392830 -21.255628  159  68  0
3.400901 -4.534534 -21.255628  174  147  50
3.400901 -4.676238 -21.255628  155  153  90
3.400901 -4.747090 -21.255628  122  120  57
3.400901 -5.455611 -21.255628  94  137  21
3.400901 -5.526463 -21.255628  126  160  41
3.400901 -5.739020 -21.255628  150  158  147
3.400901 -5.809872 -21.255628  121  136  109
3.411425 -6.680707 -21.321404  77  117  0
3.411549 -6.752024 -21.322180  80  119  0
3.411508 -6.823015 -21.321923  80  125  1
3.411828 -6.894735 -21.323922  75  121  0
3.411828 -7.392293 -21.323922  84  119  0
3.413591 -7.467231 -21.334947  99  134  7
3.413593 -8.036168 -21.334959  159  166  189
3.413593 -8.107284 -21.334959  143  156  171
3.413593 -8.178401 -21.334959  100  113  128
3.413593 -8.249517 -21.334959  47  69  68
3.413593 -8.320634 -21.334959  26  48  48
3.413593 -8.605100 -21.334959  98  125  97
3.949758 -14.482447 -24.685989  98  103  115
3.331380 -4.394587 -21.264131  147  56  0
3.331380 -4.465467 -21.264131  154  64  0
3.331380 -4.536348 -21.264131  165  138  41
3.331380 -4.678109 -21.264131  165  164  100
3.331380 -4.748989 -21.264131  136  134  71
3.331380 -5.457794 -21.264131  84  127  10
3.331380 -5.528674 -21.264131  109  144  24
3.331380 -5.599554 -21.264131  141  176  56
3.331380 -5.812196 -21.264131  142  156  130
3.331380 -5.883076 -21.264131  116  131  105
3.341726 -7.394458 -21.330168  81  116  0
3.343235 -7.468929 -21.339798  93  128  1
3.343241 -7.540075 -21.339836  120  144  43
3.343242 -7.611210 -21.339842  150  174  72
3.343242 -7.966874 -21.339842  157  164  186
3.343242 -8.180273 -21.339842  170  183  198
3.343242 -8.251405 -21.339842  159  181  181
3.867472 -14.482447 -24.685989  140  146  158
3.261764 -4.396290 -21.272373  163  62  0
3.261764 -4.750830 -21.272373  166  146  125
3.261764 -4.892646 -21.272373  100  113  109
3.261764 -5.530817 -21.272373  104  140  17
3.261764 -5.601725 -21.272373  132  168  45
3.261764 -5.814449 -21.272373  161  178  142
3.261764 -5.885357 -21.272373  139  157  120
3.272713 -7.541469 -21.343779  106  141  5
3.272709 -7.968334 -21.343752  151  158  171
3.272709 -8.039480 -21.343752  111  119  132
3.272709 -8.110626 -21.343752  75  88  96
3.272709 -8.181772 -21.343752  63  76  84
3.785185 -14.482447 -24.685989  140  145  155
3.193923 -4.400517 -21.292823  161  60  0
3.193923 -4.542469 -21.292823  187  139  57
3.193923 -4.613445 -21.292823  213  165  83
3.193923 -4.755397 -21.292823  176  155  134
3.193923 -4.897349 -21.292823  114  126  122
3.193923 -5.536134 -21.292823  92  128  5
3.193923 -5.607110 -21.292823  115  151  29
3.193923 -5.891014 -21.292823  157  175  138
3.201384 -7.469897 -21.342562  81  125  0
3.202645 -7.544008 -21.350966  98  133  0
3.202661 -8.184578 -21.351072  52  65  73
3.202661 -8.255748 -21.351072  40  61  57
3.202661 -8.326918 -21.351072  41  62  58
3.202661 -8.398088 -21.351072  34  61  43
3.202661 -8.469259 -21.351072  32  58  41
3.202661 -8.540429 -21.351072  15  41  16
3.202661 -8.611599 -21.351072  26  52  27
3.202661 -8.682769 -21.351072  73  89  70
4.197726 -16.511055 -27.984840  140  145  155
3.122946 -4.329539 -21.292816  161  62  0
3.122946 -4.542467 -21.292816  205  149  94
3.122946 -4.826372 -21.292816  157  163  189
3.122946 -4.897348 -21.292816  136  142  168
3.122946 -4.968324 -21.292816  99  130  98
3.122946 -5.536132 -21.292816  82  121  0
3.122946 -5.607108 -21.292816  100  139  2
3.122946 -6.103941 -21.292816  104  128  118
3.122946 -6.174917 -21.292816  77  101  91
3.131035 -7.542948 -21.347965  90  133  0
3.131035 -8.183387 -21.347965  174  186  189
3.131035 -8.254547 -21.347965  174  192  190
3.131035 -8.325707 -21.347965  181  199  197
3.131035 -8.396866 -21.347965  175  199  187
3.131035 -8.468026 -21.347965  172  195  183
3.131035 -8.539186 -21.347965  166  189  171
3.131035 -8.681506 -21.347965  161  178  162
3.131035 -8.752666 -21.347965  168  185  169
3.131035 -8.823826 -21.347965  166  173  170
3.051970 -4.471491 -21.292816  223  119  54
3.051970 -4.542467 -21.292816  213  157  102
3.051970 -4.897348 -21.292816  151  158  183
3.051970 -4.968324 -21.292816  120  151  120
3.051970 -5.039300 -21.292816  99  130  98
3.051970 -5.607108 -21.292816  100  138  2
3.051970 -5.678084 -21.292816  132  154  57
3.051970 -5.749060 -21.292816  152  175  77
3.051970 -6.103941 -21.292816  125  149  139
3.051970 -6.174917 -21.292816  105  129  119
3.059180 -7.470091 -21.343118  74  125  0
3.063516 -7.551924 -21.373370  88  131  0
3.063522 -7.694427 -21.373409  150  177  90
3.063522 -8.050651 -21.373409  151  159  164
3.063522 -8.121895 -21.373409  114  126  129
3.063522 -8.193140 -21.373409  60  72  75
3.063522 -8.335629 -21.373409  26  44  42
3.063522 -8.406874 -21.373409  33  56  44
3.063522 -8.478119 -21.373409  43  66  54
3.063522 -8.549363 -21.373409  59  83  64
3.063522 -8.620608 -21.373409  65  88  69
3.063522 -8.691853 -21.373409  84  101  85
3.063522 -8.763098 -21.373409  112  129  114
3.063522 -8.834342 -21.373409  143  150  147
4.011160 -16.604338 -27.984840  150  151  172
2.980994 -4.329539 -21.292816  146  91  21
2.980994 -4.400515 -21.292816  173  120  65
2.980994 -4.471491 -21.292816  209  155  101
2.980994 -4.542467 -21.292816  206  165  184
2.980994 -4.968324 -21.292816  161  181  162
2.980994 -5.039300 -21.292816  151  170  152
2.980994 -5.110276 -21.292816  106  132  77
2.980994 -5.181252 -21.292816  95  121  66
2.980994 -6.103941 -21.292816  148  164  158
2.980995 -6.245895 -21.292823  96  122  88
2.979649 -6.314018 -21.283207  83  109  75
2.992964 -7.482410 -21.378315  77  122  0
2.992978 -7.696230 -21.378416  151  172  107
2.992978 -8.052537 -21.378416  160  165  171
2.992978 -8.123798 -21.378416  151  159  167
2.992978 -8.195060 -21.378416  127  136  144
2.992978 -8.266321 -21.378416  106  120  127
2.992978 -8.337582 -21.378416  93  107  114
2.992978 -8.408844 -21.378416  75  93  93
2.992978 -8.480105 -21.378416  70  88  88
2.992978 -8.551366 -21.378416  62  82  73
2.992978 -8.622628 -21.378416  61  81  72
2.992978 -8.693889 -21.378416  60  77  64
2.992978 -8.765151 -21.378416  79  96  83
2.992978 -8.836412 -21.378416  117  129  120
2.992978 -8.907673 -21.378416  144  156  148
4.033858 -17.191919 -28.813272  136  138  152
2.910018 -4.329539 -21.292816  206  151  81
2.910018 -4.400515 -21.292816  217  164  109
2.910018 -4.471491 -21.292816  229  176  121
2.910018 -5.110276 -21.292816  147  173  119
2.910018 -5.252228 -21.292816  99  137  49
2.910018 -5.323204 -21.292816  85  123  35
2.910018 -5.678084 -21.292816  114  133  24
2.910018 -5.749060 -21.292816  143  163  54
2.910018 -6.174917 -21.292816  149  165  159
2.910019 -6.245895 -21.292823  134  161  127
2.908705 -6.314018 -21.283207  110  137  103
2.923117 -7.628623 -21.388663  124  161  31
2.923118 -8.198990 -21.388670  160  169  177
2.923118 -8.270286 -21.388670  167  180  187
2.923118 -8.769355 -21.388670  143  160  147
2.923118 -8.840650 -21.388670  159  171  163
2.923118 -8.911946 -21.388670  161  173  165
2.923118 -8.983241 -21.388670  162  170  167
2.839042 -5.252228 -21.292816  157  164  163
2.839042 -5.323204 -21.292816  143  149  149
2.839042 -5.394180 -21.292816  114  137  96
2.839042 -5.465156 -21.292816  101  124  83
2.839042 -5.536132 -21.292816  93  123  41
2.839042 -5.678084 -21.292816  94  111  3
2.839042 -5.749060 -21.292816  125  141  33
2.839042 -5.820036 -21.292816  155  165  100
2.839043 -6.245895 -21.292823  161  168  194
2.837905 -6.385286 -21.284286  122  139  136
2.838123 -6.456730 -21.285923  98  115  111
2.850961 -7.483772 -21.382206  90  126  0
2.850971 -7.555073 -21.382283  111  138  39
2.850975 -7.626359 -21.382315  138  164  66
2.850976 -8.410380 -21.382322  142  154  167
2.850976 -8.481654 -21.382322  118  131  144
2.850976 -8.552929 -21.382322  117  134  134
2.850976 -8.624203 -21.382322  110  127  127
2.850976 -8.695478 -21.382322  89  106  96
2.850976 -8.766752 -21.382322  77  94  84
2.850976 -8.838026 -21.382322  93  110  94
2.850976 -8.909301 -21.382322  125  142  127
2.850976 -8.980575 -21.382322  151  167  151
2.783512 -5.352907 -21.411629  171  177  177
2.783512 -5.424279 -21.411629  153  175  135
2.783512 -5.495651 -21.411629  147  169  129
2.783512 -5.567024 -21.411629  142  172  90
2.783512 -5.638396 -21.411629  133  163  81
2.783512 -5.709768 -21.411629  134  150  42
2.783512 -5.781140 -21.411629  150  166  58
2.783512 -6.423489 -21.411629  147  164  161
2.783512 -6.494861 -21.411629  135  152  148
2.783512 -6.566233 -21.411629  115  148  76
2.783512 -6.637605 -21.411629  97  129  58
2.783512 -6.708977 -21.411629  78  124  0
2.781856 -7.418284 -21.398896  85  121  0
2.781856 -7.489614 -21.398896  110  145  18
2.781856 -7.560943 -21.398896  136  162  63
2.781988 -8.417296 -21.399905  129  142  154
2.781988 -8.702628 -21.399905  99  116  106
2.781988 -8.773961 -21.399905  94  112  101
2.781988 -8.845294 -21.399905  90  107  92
2.781988 -8.916627 -21.399905  99  116  101
2.781988 -8.987960 -21.399905  132  148  133
3.741043 -17.745975 -28.777257  23  18  44
2.710561 -5.563782 -21.399163  164  182  165
2.710561 -5.635113 -21.399163  158  176  160
2.710561 -5.706443 -21.399163  170  175  167
2.710561 -5.777774 -21.399163  170  175  167
2.710596 -6.491164 -21.399443  163  175  168
2.710599 -6.562502 -21.399462  152  170  158
2.710600 -6.633837 -21.399475  138  157  144
2.710599 -6.705167 -21.399469  119  143  116
2.710599 -6.776498 -21.399466  107  130  104
2.710600 -6.847831 -21.399470  89  120  39
2.711005 -6.920196 -21.402668  83  113  33
2.711368 -6.992475 -21.405534  79  114  8
2.711690 -7.064666 -21.408079  80  115  10
2.711690 -7.136026 -21.408079  83  119  3
2.711690 -7.207387 -21.408079  86  122  6
2.711690 -7.278747 -21.408079  96  127  33
2.711690 -7.350107 -21.408079  105  136  42
2.711690 -7.421468 -21.408079  132  155  93
2.711690 -7.492828 -21.408079  153  176  115
2.713045 -8.424719 -21.418778  148  156  176
2.713045 -8.496115 -21.418778  124  132  151
2.713045 -8.567511 -21.418778  106  119  127
2.713045 -8.638907 -21.418778  106  119  127
2.713045 -8.710303 -21.418778  113  130  123
2.713045 -8.781699 -21.418778  127  145  138
2.713045 -8.853095 -21.418778  117  138  121
2.713045 -8.924491 -21.418778  102  123  106
2.713045 -8.995887 -21.418778  120  142  120
2.640205 -6.707548 -21.407067  160  184  157
2.640321 -6.779202 -21.408006  158  182  155
2.640912 -6.852097 -21.412802  150  180  100
2.641409 -6.924775 -21.416830  141  171  91
2.641833 -6.997287 -21.420266  134  169  63
2.641821 -7.068657 -21.420172  134  169  63
2.641821 -7.140057 -21.420172  135  171  55
2.641821 -7.211458 -21.420172  136  173  57
2.641821 -7.282859 -21.420172  146  177  84
2.641821 -7.354259 -21.420172  157  188  94
2.641821 -7.425660 -21.420172  152  175  113
2.642974 -8.428945 -21.429521  154  162  182
2.642974 -8.500377 -21.429521  141  149  169
2.642974 -8.571808 -21.429521  89  102  110
2.642974 -8.643240 -21.429521  58  71  79
2.642974 -8.928967 -21.429521  52  73  56
2.642974 -9.000399 -21.429521  102  125  103
2.567978 -5.207289 -21.399817  122  126  109
2.567978 -5.278622 -21.399817  116  140  68
2.567978 -5.349954 -21.399817  119  143  71
2.568540 -5.422474 -21.404501  114  148  47
2.568620 -5.493993 -21.405168  119  153  52
2.568620 -5.565344 -21.405168  128  158  57
2.568620 -5.636694 -21.405168  128  158  57
2.568620 -5.708045 -21.405168  130  160  74
2.568620 -5.779395 -21.405168  130  160  73
2.568620 -5.850746 -21.405168  137  160  101
2.568620 -5.922096 -21.405168  146  169  110
2.569375 -5.995208 -21.411458  152  169  129
2.569420 -6.066687 -21.411835  151  167  127
2.569420 -6.138059 -21.411835  154  168  127
2.569420 -6.209432 -21.411835  159  173  132
2.569420 -6.280805 -21.411835  156  171  129
2.569420 -6.352178 -21.411835  158  173  131
2.569420 -6.423551 -21.411835  157  175  141
2.569420 -6.494923 -21.411835  158  175  142
2.569420 -6.566296 -21.411835  154  176  147
2.569420 -6.637669 -21.411835  156  177  148
2.569420 -6.709042 -21.411835  156  182  148
2.569420 -6.780414 -21.411835  158  184  150
2.569420 -6.851787 -21.411835  159  186  147
2.569420 -6.923160 -21.411835  156  183  144
2.569420 -6.994533 -21.411835  156  186  132
2.569420 -7.065906 -21.411835  160  189  136
2.569420 -7.137278 -21.411835  160  189  135
2.569420 -7.208651 -21.411835  157  187  132
2.569420 -7.280024 -21.411835  159  185  146
2.569420 -7.351397 -21.411835  164  190  151
2.569420 -7.422769 -21.411835  163  184  158
2.569420 -7.494142 -21.411835  161  182  155
2.574964 -7.581837 -21.458030  160  176  154
2.574961 -7.653357 -21.458011  163  180  157
2.574961 -7.724883 -21.458010  170  180  169
2.574961 -7.796410 -21.458010  162  173  162
2.574961 -7.867937 -21.458010  160  165  171
2.574961 -8.511677 -21.458010  161  167  186
2.574961 -8.583204 -21.458010  140  151  163
2.574961 -8.654731 -21.458010  113  124  137
2.574961 -8.726257 -21.458010  78  95  94
2.574961 -8.797784 -21.458010  58  76  75
2.574961 -8.869311 -21.458010  40  63  50
2.574961 -8.940837 -21.458010  41  64  51
2.574961 -9.012364 -21.458010  78  104  85
2.574961 -9.083891 -21.458010  120  145  127
2.574961 -9.155418 -21.458010  160  165  151
2.497660 -5.209406 -21.408518  90  94  77
2.497660 -5.280768 -21.408518  85  109  37
2.497660 -5.352129 -21.408518  90  114  42
2.499408 -5.427287 -21.423500  84  118  17
2.499408 -5.498698 -21.423500  84  118  18
2.499408 -5.570110 -21.423500  89  119  18
2.499686 -5.642147 -21.425876  87  117  16
2.499686 -5.713567 -21.425876  85  116  29
2.499686 -5.784987 -21.425876  84  114  27
2.499686 -5.856406 -21.425876  86  109  50
2.499686 -5.927826 -21.425876  88  111  51
2.500568 -6.001362 -21.433436  88  105  65
2.500639 -6.072981 -21.434052  85  101  62
2.500639 -6.144428 -21.434052  88  102  61
2.500639 -6.215875 -21.434052  92  106  65
2.500639 -6.287322 -21.434052  92  107  65
2.500639 -6.358769 -21.434052  94  109  67
2.500639 -6.430216 -21.434052  92  110  77
2.500639 -6.501662 -21.434052  91  108  75
2.500639 -6.573109 -21.434052  85  106  77
2.500639 -6.644556 -21.434052  84  106  77
2.500639 -6.716003 -21.434052  85  110  77
2.500639 -6.787450 -21.434052  88  114  80
2.500639 -6.858897 -21.434052  88  115  76
2.500639 -6.930343 -21.434052  89  116  77
2.500639 -7.001790 -21.434052  92  121  68
2.500639 -7.073237 -21.434052  94  124  70
2.500639 -7.144684 -21.434052  96  125  70
2.500639 -7.216131 -21.434052  96  125  70
2.500639 -7.287578 -21.434052  98  123  84
2.500639 -7.359024 -21.434052  99  125  86
2.500639 -7.430471 -21.434052  106  126  100
2.500639 -7.501918 -21.434052  106  126  100
2.506405 -7.590828 -21.483475  111  127  105
2.506400 -7.662424 -21.483433  119  136  114
2.506398 -7.734027 -21.483408  127  138  127
2.506397 -7.805635 -21.483400  123  133  123
2.506397 -7.877247 -21.483400  133  138  143
2.506397 -7.948858 -21.483400  154  159  164
2.506397 -8.020469 -21.483400  155  159  136
2.506397 -8.593360 -21.483401  168  179  191
2.506397 -8.664972 -21.483401  167  178  190
2.506397 -8.736583 -21.483401  162  180  179
2.506397 -9.094640 -21.483401  149  175  156
3.349359 -17.895149 -28.708794  26  18  42
2.426299 -4.995321 -21.408518  164  174  155
2.438437 -7.817342 -21.515621  75  112  0
2.438437 -7.889062 -21.515623  88  120  1
2.438437 -7.960781 -21.515623  109  141  22
2.438437 -8.032499 -21.515623  146  153  110
2.438437 -8.606249 -21.515623  149  159  173
2.438437 -8.677968 -21.515623  124  134  148
2.438437 -8.749687 -21.515623  93  110  113
2.438437 -8.821405 -21.515623  95  112  115
2.438437 -8.893124 -21.515623  113  136  129
2.438437 -8.964843 -21.515623  128  151  144
2.438437 -9.036562 -21.515623  126  154  140
2.438437 -9.108280 -21.515623  115  142  129
2.438437 -9.179999 -21.515623  153  158  141
2.361461 -5.009159 -21.467826  175  184  165
2.361461 -5.080719 -21.467826  144  153  134
2.368207 -7.965788 -21.529158  98  129  11
2.368207 -8.037552 -21.529158  141  147  104
2.368205 -8.611653 -21.529133  151  161  175
2.368205 -8.683417 -21.529133  112  122  136
2.368205 -8.755181 -21.529133  65  83  86
2.368205 -8.970472 -21.529133  102  126  118
2.368205 -9.042236 -21.529133  101  128  115
2.368205 -9.114000 -21.529133  88  115  101
2.368205 -9.185764 -21.529133  132  137  120
2.291053 -5.083273 -21.478620  170  149  115
2.291064 -5.154894 -21.478725  105  130  67
2.298281 -7.972164 -21.546389  76  126  8
2.298281 -8.043985 -21.546389  120  146  18
2.298281 -8.115806 -21.546389  148  174  46
2.298281 -8.618556 -21.546389  159  164  174
2.298281 -8.690377 -21.546389  131  136  146
2.298281 -8.762198 -21.546389  99  118  116
2.298281 -9.049483 -21.546389  70  107  110
2.298281 -9.121305 -21.546389  74  112  115
2.298281 -9.193126 -21.546389  128  141  104
2.220593 -5.085873 -21.489606  184  162  128
2.220603 -5.157529 -21.489705  120  145  82
2.229473 -7.982951 -21.575543  76  126  8
2.229473 -8.054869 -21.575542  115  141  13
2.229471 -8.702127 -21.575522  141  146  156
2.229471 -8.774045 -21.575522  112  130  128
2.229471 -8.845964 -21.575522  104  122  120
2.229471 -8.917882 -21.575522  92  123  119
2.229471 -8.989801 -21.575522  77  107  104
2.229471 -9.061719 -21.575522  45  82  85
2.229471 -9.133637 -21.575522  24  61  64
2.229471 -9.205556 -21.575522  111  124  87
2.148971 -5.157529 -21.489705  144  146  87
2.148976 -5.229176 -21.489764  120  122  64
2.148979 -5.300816 -21.489794  88  122  17
2.160401 -7.993482 -21.604006  72  122  2
2.160401 -8.065496 -21.604006  101  133  19
2.160401 -8.137509 -21.604006  129  162  47
2.160401 -8.713616 -21.604006  159  157  182
2.160401 -8.785629 -21.604006  148  156  167
2.160401 -8.857642 -21.604006  145  152  163
2.160401 -8.929656 -21.604006  139  157  162
2.160401 -9.001669 -21.604006  133  151  156
2.160401 -9.073683 -21.604006  107  131  138
2.160401 -9.145696 -21.604006  84  107  115
2.160401 -9.217709 -21.604006  129  136  145
2.873267 -18.101580 -28.732666  22  16  35
2.077344 -5.229176 -21.489764  120  122  63
2.091799 -8.078673 -21.639301  93  126  11
2.091799 -8.150805 -21.639304  120  153  38
2.023790 -8.095159 -21.683461  83  125  0
2.023789 -8.167436 -21.683458  105  148  20
2.023788 -8.745657 -21.683447  159  153  179
2.023788 -8.817935 -21.683447  158  157  173
1.953970 -8.105356 -21.710775  79  122  0
1.953970 -8.177725 -21.710775  97  140  12
1.953971 -8.684317 -21.710793  163  157  182
1.953971 -8.756686 -21.710793  136  130  156
1.953971 -8.829056 -21.710793  122  121  136
1.953971 -8.901425 -21.710793  142  141  157
1.953971 -8.973794 -21.710793  164  170  178
1.953971 -9.046164 -21.710793  171  177  185
1.953971 -9.118533 -21.710793  163  174  180
2.593513 -18.250645 -28.816808  22  13  34
1.884462 -8.697519 -21.743796  140  139  145
1.884462 -8.769998 -21.743796  91  90  96
1.884462 -8.842477 -21.743796  40  45  37
1.884462 -8.914957 -21.743796  30  35  27
1.884462 -8.987436 -21.743796  47  60  36
1.884462 -9.059915 -21.743796  80  94  70
1.884462 -9.132394 -21.743796  115  135  101
1.884462 -9.204874 -21.743796  144  164  130
1.884462 -9.277353 -21.743796  162  184  153
1.884462 -9.349832 -21.743796  166  187  156
1.884462 -9.422312 -21.743796  163  178  155
2.497457 -18.250648 -28.816812  22  15  40
1.813506 -8.197048 -21.762075  87  129  8
1.813506 -8.269587 -21.762072  119  148  66
1.813505 -8.704825 -21.762063  172  170  176
1.813505 -8.777365 -21.762063  160  159  164
1.813505 -8.849906 -21.762063  140  144  137
1.813505 -8.922446 -21.762063  116  121  113
1.813505 -8.994986 -21.762063  79  93  68
1.813505 -9.067526 -21.762063  47  61  36
1.813505 -9.212607 -21.762063  26  46  12
1.813505 -9.285147 -21.762063  46  67  36
1.813505 -9.357687 -21.762063  89  111  80
1.813505 -9.430227 -21.762063  137  152  129
1.719190 -5.873899 -21.489874  83  133  0
1.737490 -6.443193 -21.718629  83  120  3
1.737490 -6.515589 -21.718629  83  122  9
1.742226 -8.202980 -21.777823  90  128  0
1.742226 -8.275573 -21.777823  113  141  31
1.742226 -8.348168 -21.777830  141  169  60
1.742226 -8.928910 -21.777830  162  171  193
1.742226 -9.001503 -21.777830  155  173  191
1.742226 -9.074096 -21.777830  154  172  190
1.742226 -9.146689 -21.777830  121  146  158
1.742226 -9.219281 -21.777830  69  95  107
1.742226 -9.291874 -21.777830  36  65  16
1.742226 -9.364467 -21.777830  27  57  7
1.742226 -9.437060 -21.777830  84  105  65
1.742226 -9.509652 -21.777830  148  169  129
1.647557 -5.802266 -21.489874  77  129  0
1.647557 -5.873899 -21.489874  81  130  0
1.665391 -6.009889 -21.722489  91  140  0
1.665391 -6.082297 -21.722489  98  143  0
1.665391 -6.154705 -21.722489  93  138  0
1.665391 -6.227113 -21.722489  91  131  0
1.665391 -6.299522 -21.722489  87  127  0
1.665391 -6.371930 -21.722489  92  129  12
1.665391 -6.444338 -21.722489  92  129  12
1.665391 -7.168421 -21.722489  76  129  0
1.665391 -7.313238 -21.722489  85  134  0
1.665391 -7.385646 -21.722489  87  131  0
1.665391 -7.458054 -21.722489  84  128  0
1.665391 -7.530463 -21.722489  87  126  0
1.665391 -7.602871 -21.722489  88  127  0
1.665391 -7.675279 -21.722489  89  126  2
1.665391 -7.747688 -21.722489  89  126  2
1.665391 -7.820096 -21.722489  89  127  0
1.665391 -7.892504 -21.722489  89  127  0
1.671277 -7.993065 -21.799269  89  130  0
1.671280 -8.065743 -21.799305  90  131  0
1.671281 -8.138411 -21.799315  89  127  0
1.671281 -8.211075 -21.799315  92  129  0
1.671281 -8.283740 -21.799315  108  136  27
1.671281 -8.792390 -21.799314  158  160  174
1.671281 -8.865055 -21.799314  159  167  189
1.671281 -8.937719 -21.799314  161  169  191
1.671281 -9.010383 -21.799314  131  149  167
1.671281 -9.083048 -21.799314  93  111  129
1.671281 -9.228376 -21.799314  38  64  76
1.671281 -9.301041 -21.799314  23  53  3
1.671281 -9.373705 -21.799314  64  94  44
1.671281 -9.446370 -21.799314  122  143  103
1.671281 -9.519034 -21.799314  148  169  129
2.259189 -18.761088 -29.467678  28  22  49
1.575924 -5.802266 -21.489874  92  139  21
1.592749 -5.936610 -21.719306  107  148  39
1.593211 -6.155587 -21.725603  158  189  105
1.593211 -6.228006 -21.725603  160  179  136
1.593211 -6.300425 -21.725603  156  175  132
1.593211 -6.372843 -21.725603  156  171  157
1.593211 -6.445262 -21.725603  155  170  156
1.593211 -6.517681 -21.725603  144  165  141
1.593211 -6.590099 -21.725603  126  146  123
1.593211 -7.169449 -21.725603  91  134  24
1.593211 -7.241868 -21.725603  112  149  51
1.593211 -7.314286 -21.725603  131  168  70
1.593211 -7.386705 -21.725603  143  170  103
1.593211 -7.459124 -21.725603  142  169  102
1.593211 -7.531542 -21.725603  152  169  141
1.593211 -7.603961 -21.725603  153  171  142
1.593211 -7.676380 -21.725603  155  167  162
1.593211 -7.748798 -21.725603  155  167  163
1.599442 -7.851807 -21.810574  155  166  162
1.599442 -7.924509 -21.810574  154  165  161
1.599440 -7.997202 -21.810551  153  166  152
1.599440 -8.069903 -21.810549  153  166  152
1.599440 -8.142605 -21.810549  156  167  147
1.599440 -8.215307 -21.810549  153  164  144
1.599440 -8.288009 -21.810549  155  161  150
1.599440 -8.796921 -21.810549  154  158  174
1.599440 -8.869623 -21.810549  105  122  127
1.599440 -8.942325 -21.810549  57  73  78
1.599440 -9.015027 -21.810549  16  48  32
1.599440 -9.087729 -21.810549  16  47  32
1.599440 -9.160431 -21.810549  45  86  55
1.599440 -9.233132 -21.810549  78  119  88
1.599440 -9.305834 -21.810549  125  155  130
1.599440 -9.378536 -21.810549  149  180  154
1.599440 -9.451238 -21.810549  161  181  163
1.504291 -5.802266 -21.489874  82  129  11
1.520351 -5.936610 -21.719306  101  142  33
1.521606 -6.593627 -21.737231  139  160  136
1.521606 -6.666084 -21.737231  109  143  75
1.521606 -7.173286 -21.737231  90  134  24
1.521606 -7.245744 -21.737231  119  157  58
1.528368 -8.806312 -21.833832  148  152  169
1.528368 -8.879092 -21.833832  96  113  118
1.528368 -8.951871 -21.833832  44  61  66
1.528368 -9.024651 -21.833832  21  53  37
1.528368 -9.097430 -21.833832  47  78  63
1.528368 -9.170210 -21.833832  93  135  103
1.528368 -9.242989 -21.833832  134  176  144
1.528368 -9.315768 -21.833832  147  177  152
1.528368 -9.388548 -21.833832  157  187  162
1.528368 -9.461327 -21.833832  162  182  165
1.449668 -5.943638 -21.745015  95  136  10
1.449983 -6.597422 -21.749743  138  151  151
1.449983 -6.814919 -21.749743  72  115  8
1.449983 -7.177415 -21.749743  85  129  0
1.449983 -7.249914 -21.749743  113  150  34
1.457477 -8.817733 -21.862148  165  166  185
1.457477 -8.890607 -21.862148  133  146  157
1.457477 -8.963481 -21.862148  103  117  127
1.457477 -9.036355 -21.862148  69  97  90
1.457477 -9.109229 -21.862148  38  66  58
1.457477 -9.254976 -21.862148  5  43  21
1.457477 -9.327850 -21.862148  44  77  53
1.457477 -9.400724 -21.862148  66  99  76
1.457477 -9.473598 -21.862148  111  133  117
1.457477 -9.546471 -21.862148  141  164  148
2.001955 -19.218770 -30.029329  33  20  22
1.378310 -7.181720 -21.762787  83  128  0
1.378310 -7.254262 -21.762787  111  148  32
1.386994 -8.978961 -21.899904  154  168  178
1.386994 -9.051961 -21.899904  148  176  168
1.386994 -9.124960 -21.899904  141  169  162
1.386994 -9.197960 -21.899904  114  152  129
1.386994 -9.270960 -21.899904  88  126  103
1.386994 -9.343959 -21.899904  53  86  63
1.386994 -9.416959 -21.899904  19  52  29
1.386994 -9.489959 -21.899904  35  57  41
1.386994 -9.562958 -21.899904  85  108  92
1.386994 -9.708958 -21.899904  156  164  159
1.912000 -19.321258 -30.189466  33  20  22
1.305767 -6.093580 -21.762787  128  153  58
1.305767 -6.166123 -21.762787  148  173  77
1.305767 -6.528836 -21.762787  154  163  170
1.305767 -6.601379 -21.762787  139  147  154
1.305767 -6.673921 -21.762787  110  135  96
1.305767 -6.746464 -21.762787  91  116  77
1.305767 -6.819007 -21.762787  77  116  30
1.305767 -7.181720 -21.762787  80  122  0
1.305767 -7.254262 -21.762787  103  137  24
1.315127 -8.986704 -21.918790  154  161  178
1.315127 -9.059766 -21.918790  149  168  179
1.315127 -9.132829 -21.918790  158  177  188
1.315127 -9.205892 -21.918790  145  172  174
1.315127 -9.352017 -21.918790  81  121  68
1.315127 -9.425080 -21.918790  29  69  16
1.315127 -9.571205 -21.918790  73  102  59
1.315127 -9.644268 -21.918790  127  139  111
1.315127 -9.717330 -21.918790  148  160  133
1.820308 -19.416622 -30.338472  33  19  25
1.233225 -6.166123 -21.762787  119  145  49
1.233225 -6.238666 -21.762787  150  160  120
1.233225 -6.311208 -21.762787  163  173  133
1.233225 -6.383751 -21.762787  166  169  175
1.233225 -6.456294 -21.762787  157  160  167
1.233225 -6.528836 -21.762787  136  145  152
1.233225 -6.601379 -21.762787  113  122  129
1.233225 -6.673921 -21.762787  87  112  74
1.233225 -6.746464 -21.762787  78  103  64
1.233225 -7.181720 -21.762787  79  121  0
1.233225 -7.254262 -21.762787  101  135  22
1.244361 -8.930118 -21.959305  153  161  178
1.244361 -9.003315 -21.959305  148  156  173
1.244361 -9.076513 -21.959305  109  128  139
1.244361 -9.149711 -21.959305  69  88  99
1.244361 -9.222908 -21.959305  35  62  64
1.244361 -9.442501 -21.959305  42  83  29
1.244361 -9.515699 -21.959305  104  132  89
1.244361 -9.588897 -21.959305  141  169  126
1.727098 -19.506044 -30.478194  32  19  25
1.160682 -6.238666 -21.762787  83  122  0
1.160682 -6.311208 -21.762787  81  121  0
1.160682 -6.383751 -21.762787  82  117  12
1.160682 -6.456294 -21.762787  81  117  12
1.160682 -6.528836 -21.762787  79  116  23
1.160682 -6.601379 -21.762787  82  119  26
1.160682 -7.181720 -21.762787  81  129  0
1.160682 -7.254262 -21.762787  101  134  8
1.173446 -8.947529 -22.002121  132  147  150
1.173446 -9.020870 -22.002121  96  111  114
1.173446 -9.094210 -22.002121  42  68  67
1.173446 -9.240891 -22.002121  34  68  64
1.173446 -9.314231 -22.002121  81  115  111
1.173446 -9.387572 -22.002121  113  153  141
1.173446 -9.460912 -22.002121  140  180  168
1.173446 -9.534253 -22.002121  161  192  163
1.173446 -9.607593 -22.002121  148  179  150
1.088139 -7.181720 -21.762787  78  125  0
1.100908 -7.339387 -22.018161  98  132  6
1.101717 -8.960635 -22.034349  148  163  165
1.101717 -9.034083 -22.034349  132  147  149
1.101717 -9.107531 -22.034349  111  137  136
1.101717 -9.254426 -22.034349  134  167  164
1.101717 -9.401322 -22.034349  102  141  130
1.101717 -9.474770 -22.034349  90  130  118
1.101717 -9.548218 -22.034349  107  138  108
1.101717 -9.621666 -22.034349  135  166  137
1.027997 -7.269406 -22.028504  80  125  0
1.028441 -7.346010 -22.038031  96  129  4
1.028581 -9.257226 -22.041013  114  134  135
1.028581 -9.330696 -22.041013  58  78  79
1.028581 -9.404166 -22.041013  11  48  38
1.028581 -9.551106 -22.041013  15  44  16
1.028581 -9.624576 -22.041013  51  80  52
1.028581 -9.698046 -22.041013  109  123  92
1.028581 -9.771516 -22.041013  143  157  126
1.435279 -19.786344 -30.755976  28  19  47
0.956189 -7.281749 -22.065905  77  122  0
0.956189 -7.355302 -22.065905  95  129  3
0.956669 -9.198740 -22.076977  139  153  156
0.956669 -9.345920 -22.076977  63  83  84
0.956669 -9.419510 -22.076977  56  93  83
0.956669 -9.493100 -22.076977  59  96  86
0.956669 -9.566690 -22.076977  69  98  70
0.956669 -9.640280 -22.076977  62  91  63
0.956669 -9.713870 -22.076977  90  104  73
0.956669 -9.787460 -22.076977  137  151  120
1.338051 -19.864905 -30.878091  27  18  46
0.882636 -7.281749 -22.065905  74  118  0
0.882636 -7.355302 -22.065905  93  126  2
0.884434 -9.212849 -22.110838  155  158  165
0.884434 -9.286552 -22.110838  122  130  135
0.884434 -9.728769 -22.110838  99  112  82
0.884434 -9.802471 -22.110838  125  138  108
1.235124 -19.864905 -30.878091  24  17  41
0.809083 -7.281749 -22.065905  77  121  0
0.812277 -9.230417 -22.153000  147  149  157
0.812277 -9.304260 -22.153000  115  123  129
0.812277 -9.525790 -22.153000  84  117  110
0.812277 -9.821163 -22.153000  115  128  98
1.137324 -19.954861 -31.017919  23  15  40
0.735314 -7.206072 -22.059406  76  118  0
0.735530 -7.281749 -22.065905  82  124  0
0.739645 -7.470417 -22.189357  138  170  51
0.739345 -9.241806 -22.180336  156  159  167
0.739345 -9.315741 -22.180336  121  130  135
0.739345 -9.463610 -22.180336  43  72  68
0.739345 -9.537544 -22.180336  44  73  69
0.739345 -9.833282 -22.180336  121  134  105
1.038401 -20.041140 -31.152031  21  15  41
0.661782 -7.206072 -22.059406  78  121  0
0.661977 -7.281749 -22.065905  84  126  0
0.666331 -7.477719 -22.211046  138  169  51
0.666421 -9.329891 -22.214025  139  148  154
0.666421 -9.403937 -22.214025  107  116  121
0.666421 -9.477984 -22.214025  45  75  70
0.666421 -9.626078 -22.214025  90  113  89
0.666421 -9.700124 -22.214025  128  151  127
0.666421 -9.774171 -22.214025  124  136  107
0.666421 -9.848218 -22.214025  126  138  109
0.934623 -20.042463 -31.154088  22  16  41
0.588251 -7.206072 -22.059406  76  116  0
0.593268 -9.269817 -22.247561  153  165  170
0.593268 -9.343976 -22.247561  156  174  177
0.593268 -9.418134 -22.247561  156  175  177
0.593268 -9.714768 -22.247561  153  175  153
0.593268 -9.788927 -22.247561  159  172  145
0.593268 -9.863085 -22.247561  160  173  145
0.827424 -19.961609 -31.028408  23  18  47
0.514788 -7.133493 -22.062349  78  125  0
0.514871 -7.355302 -22.065905  145  171  69
0.520002 -9.137180 -22.285806  162  166  173
0.520002 -9.285752 -22.285806  120  132  137
0.520002 -9.360038 -22.285806  112  130  133
0.520002 -9.434324 -22.285806  113  132  135
0.520002 -9.508610 -22.285806  97  124  122
0.520002 -9.582897 -22.285806  89  116  114
0.520002 -9.657183 -22.285806  89  111  89
0.520002 -9.731469 -22.285806  84  106  84
0.520002 -9.805755 -22.285806  101  114  87
0.520002 -9.880041 -22.285806  125  138  111
0.723996 -19.961601 -31.028396  22  17  46
0.441318 -7.281749 -22.065905  124  155  39
0.441318 -7.355302 -22.065905  150  167  95
0.446302 -9.149193 -22.315106  126  132  140
0.446302 -9.223577 -22.315106  72  87  92
0.446302 -9.297961 -22.315106  17  33  37
0.446302 -9.521112 -22.315106  0  18  18
0.446302 -9.595495 -22.315106  0  17  17
0.446302 -9.669879 -22.315106  1  24  3
0.446302 -9.744263 -22.315106  8  30  10
0.446302 -9.818646 -22.315106  38  53  26
0.446302 -9.893030 -22.315106  83  98  71
0.623477 -20.055179 -31.173853  19  16  48
0.367706 -7.133493 -22.062349  84  124  0
0.367657 -7.206072 -22.059406  112  144  27
0.367765 -7.281749 -22.065905  137  169  53
0.372420 -9.161537 -22.345213  159  165  172
0.372420 -9.236021 -22.345213  131  146  150
0.372420 -9.310505 -22.345213  108  123  127
0.372420 -9.384989 -22.345213  105  128  130
0.372420 -9.459473 -22.345213  113  136  137
0.372420 -9.608441 -22.345213  123  148  148
0.372420 -9.682925 -22.345213  131  153  133
0.372420 -9.757409 -22.345213  125  147  127
0.372420 -9.831894 -22.345213  128  143  116
0.372420 -9.980862 -22.345213  151  158  148
0.521737 -20.139062 -31.304241  17  14  46
0.294125 -7.206072 -22.059406  145  164  94
0.298142 -9.615090 -22.360675  123  148  150
0.298142 -9.689626 -22.360675  123  146  127
0.298142 -9.764161 -22.360675  128  152  132
0.298142 -9.838697 -22.360675  146  164  136
0.298142 -9.913232 -22.360675  162  180  153
0.417240 -20.131812 -31.292972  17  14  47
0.223874 -9.551948 -22.387379  90  115  117
0.223874 -9.626573 -22.387379  40  66  67
0.223874 -9.701198 -22.387379  9  33  13
0.223874 -9.775822 -22.387379  10  33  14
0.223874 -9.850447 -22.387379  48  66  39
0.223874 -9.925071 -22.387379  102  120  93
0.314353 -20.223380 -31.435306  18  15  48
0.149323 -9.407345 -22.398440  147  151  159
0.149323 -9.482006 -22.398440  121  125  133
0.149323 -9.556668 -22.398440  63  89  91
0.149323 -9.631329 -22.398440  45  71  73
0.149323 -9.705991 -22.398440  50  75  56
0.149323 -9.780652 -22.398440  55  79  60
0.149323 -9.855314 -22.398440  60  79  52
0.149323 -9.929975 -22.398440  82  102  75
0.149323 -10.004636 -22.398440  121  134  123
0.209680 -20.234106 -31.451979  18  16  48
0.074662 -9.407422 -22.398624  143  146  155
0.074662 -9.482084 -22.398624  117  121  129
0.074662 -9.556746 -22.398624  73  99  101
0.074662 -9.631408 -22.398624  98  124  126
0.074662 -9.706070 -22.398624  142  167  147
0.074662 -9.780732 -22.398624  136  160  141
0.074662 -9.855394 -22.398624  87  107  79
0.074662 -9.930057 -22.398624  65  85  57
0.074662 -10.004719 -22.398624  102  115  103
0.104840 -20.234103 -31.451974  16  15  47
-0.000000 -8.593743 -22.418459  153  167  161
-0.000000 -8.668471 -22.418459  153  170  145
-0.000000 -9.415753 -22.418459  133  145  149
-0.000000 -9.490481 -22.418459  100  112  116
-0.000000 -9.565209 -22.418459  84  97  105
-0.000000 -9.639937 -22.418459  114  127  135
-0.000000 -9.789394 -22.418459  137  155  159
-0.000000 -9.864122 -22.418459  101  121  120
-0.000000 -9.938850 -22.418459  78  97  97
-0.000000 -10.013578 -22.418459  106  121  116
-0.000000 -20.328377 -31.598514  19  12  45
-0.074662 -7.690207 -22.398662  150  156  159
-0.074662 -7.764869 -22.398662  145  150  152
-0.074662 -7.914194 -22.398662  145  151  153
-0.074662 -7.988856 -22.398662  145  151  153
-0.074662 -8.063518 -22.398662  144  149  153
-0.074662 -8.138181 -22.398662  142  147  151
-0.074798 -8.302539 -22.439296  139  144  148
-0.074798 -8.377337 -22.439296  120  129  145
-0.074798 -8.452131 -22.439286  114  123  139
-0.074798 -8.601726 -22.439284  101  115  109
-0.074798 -8.676522 -22.439280  101  118  93
-0.074798 -8.751316 -22.439272  110  126  102
-0.074798 -8.826109 -22.439261  133  142  122
-0.074797 -9.424474 -22.439224  132  143  148
-0.074797 -9.499271 -22.439224  103  114  119
-0.074797 -9.574069 -22.439224  87  100  108
-0.074797 -9.648866 -22.439224  116  129  137
-0.074797 -9.798461 -22.439224  133  151  155
-0.074797 -9.873259 -22.439224  102  121  121
-0.074797 -9.948056 -22.439224  75  94  94
-0.074797 -10.097651 -22.439224  143  157  153
-0.105770 -20.413626 -31.731025  19  12  45
-0.149324 -7.764869 -22.398662  80  111  0
-0.149324 -7.839532 -22.398662  80  111  1
-0.149324 -7.988856 -22.398662  77  109  0
-0.149324 -8.063518 -22.398662  74  105  0
-0.149595 -8.227723 -22.439244  63  94  0
-0.149595 -8.302520 -22.439243  60  91  0
-0.149595 -8.377317 -22.439243  74  111  0
-0.149595 -8.452114 -22.439241  74  111  0
-0.149595 -8.526911 -22.439240  72  112  0
-0.149595 -8.751299 -22.439228  81  119  0
-0.149595 -8.826090 -22.439213  115  140  38
-0.149595 -9.424468 -22.439210  139  148  155
-0.149595 -9.499266 -22.439210  120  129  136
-0.149595 -9.798455 -22.439210  134  153  147
-0.149595 -10.022847 -22.439210  122  137  127
-0.149595 -10.097645 -22.439210  149  164  154
-0.212476 -20.503929 -31.871392  19  12  42
-0.224392 -8.751292 -22.439210  81  118  0
-0.224392 -8.826089 -22.439210  114  138  36
-0.224392 -9.499266 -22.439210  139  148  155
-0.224392 -9.648860 -22.439210  130  144  142
-0.224392 -9.723658 -22.439210  116  135  129
-0.224392 -9.798455 -22.439210  113  132  127
-0.224392 -9.873253 -22.439210  117  138  128
-0.224392 -9.948050 -22.439210  132  152  143
-0.224392 -10.097645 -22.439210  135  150  141
-0.299189 -8.676495 -22.439210  67  109  0
-0.299189 -8.751292 -22.439210  79  121  0
-0.299189 -8.826089 -22.439210  113  140  46
-0.299189 -9.574063 -22.439210  110  122  135
-0.299189 -9.648860 -22.439210  48  60  72
-0.299189 -9.723658 -22.439210  4  25  5
-0.299189 -9.798455 -22.439210  4  25  6
-0.299189 -9.873253 -22.439210  23  49  5
-0.299189 -9.948050 -22.439210  76  102  58
-0.299189 -10.022847 -22.439210  134  152  122
-0.426932 -20.599471 -32.019904  20  14  41
-0.373987 -8.676495 -22.439210  63  105  0
-0.373987 -8.751292 -22.439210  76  118  0
-0.373987 -9.499266 -22.439211  127  130  155
-0.373987 -9.574063 -22.439211  76  88  101
-0.373987 -9.648861 -22.439211  46  58  70
-0.373987 -9.798455 -22.439211  72  93  73
-0.373987 -9.873253 -22.439211  52  78  34
-0.373987 -9.948050 -22.439211  55  81  37
-0.373987 -10.022847 -22.439211  110  128  98
-0.533900 -20.608525 -32.033976  20  14  41
-0.448784 -8.676495 -22.439210  62  105  0
-0.448784 -8.751292 -22.439211  74  117  2
-0.448784 -9.424468 -22.439211  136  141  142
-0.448784 -9.499266 -22.439211  113  118  119
-0.448784 -9.574063 -22.439211  78  95  77
-0.448784 -9.723658 -22.439211  136  155  147
-0.448784 -9.798455 -22.439211  151  170  162
-0.448784 -9.873253 -22.439211  104  123  122
-0.448784 -9.948050 -22.439211  64  83  82
-0.448784 -10.022847 -22.439211  96  110  105
-0.643328 -20.693706 -32.166382  20  15  41
-0.523582 -8.676495 -22.439211  60  103  0
-0.523582 -8.751292 -22.439211  74  117  2
-0.523582 -9.424468 -22.439211  136  141  142
-0.523582 -9.574063 -22.439211  83  100  82
-0.523582 -9.723658 -22.439211  133  152  144
-0.523582 -9.798455 -22.439211  132  151  143
-0.523582 -9.948050 -22.439211  78  97  96
-0.523582 -10.097645 -22.439211  127  141  136
-0.750549 -20.693706 -32.166382  20  15  42
-0.598379 -8.676495 -22.439211  58  104  0
-0.598379 -8.751292 -22.439211  72  117  0
-0.598379 -9.424469 -22.439211  134  140  142
-0.598379 -9.499266 -22.439211  104  109  112
-0.598379 -9.648861 -22.439211  113  128  121
-0.598379 -9.723658 -22.439211  137  155  157
-0.598379 -9.798455 -22.439211  133  151  153
-0.598379 -9.948050 -22.439211  79  97  104
-0.598379 -10.022847 -22.439211  105  118  117
-0.598379 -10.097645 -22.439211  138  151  150
-0.861369 -20.780524 -32.301332  15  10  38
-0.673176 -8.676495 -22.439211  68  113  0
-0.673176 -9.424469 -22.439211  139  145  147
-0.673176 -9.499266 -22.439211  115  120  123
-0.673176 -9.648861 -22.439211  44  59  52
-0.673176 -9.723658 -22.439211  42  59  61
-0.673176 -9.798455 -22.439211  41  59  60
-0.673176 -9.948050 -22.439211  55  73  80
-0.673176 -10.022848 -22.439211  112  125  124
-0.673176 -10.097645 -22.439211  137  151  149
-0.969496 -20.790305 -32.316537  20  15  43
-0.747974 -8.676495 -22.439211  63  103  0
-0.747974 -8.826090 -22.439211  112  137  61
-0.747974 -9.424469 -22.439211  142  148  164
-0.747974 -9.499266 -22.439211  130  136  152
-0.747974 -9.648861 -22.439211  40  49  80
-0.747974 -9.723658 -22.439211  16  35  32
-0.747974 -9.798455 -22.439211  33  52  48
-0.747974 -9.873253 -22.439211  62  86  54
-0.747974 -9.948050 -22.439211  106  130  98
-0.747974 -10.022848 -22.439211  138  155  131
-1.081427 -20.763404 -32.442819  17  12  40
-1.081427 -20.871547 -32.442819  21  16  43
-0.822771 -8.676495 -22.439211  61  101  0
-0.822771 -8.826090 -22.439211  110  135  59
-0.822771 -9.574063 -22.439211  142  152  183
-0.822771 -9.648861 -22.439211  136  145  176
-0.822771 -9.873253 -22.439211  137  161  129
-0.822771 -10.022848 -22.439211  139  156  132
-1.190170 -20.773869 -32.459170  15  10  38
-1.190170 -20.882066 -32.459170  20  15  42
-0.897568 -8.826090 -22.439211  116  140  58
-0.897568 -9.424469 -22.439211  130  143  135
-0.897568 -9.574063 -22.439211  103  118  116
-0.897568 -9.648861 -22.439211  97  112  110
-0.897568 -9.723658 -22.439211  77  95  90
-0.897568 -9.798456 -22.439211  61  80  74
-0.897568 -9.873253 -22.439211  63  83  73
-0.897568 -9.948050 -22.439211  78  99  89
-0.897568 -10.022848 -22.439211  108  123  111
-1.299141 -20.786252 -32.478519  16  12  37
-1.299141 -20.894514 -32.478519  21  17  41
-0.972366 -8.751292 -22.439211  86  123  7
-0.972366 -8.826090 -22.439211  116  140  58
-0.972366 -9.424469 -22.439211  113  126  118
-0.972366 -9.574063 -22.439211  16  31  29
-0.972366 -9.723658 -22.439211  0  9  3
-0.972366 -9.798456 -22.439211  0  18  12
-0.972366 -9.873253 -22.439211  20  41  30
-0.972366 -9.948050 -22.439211  67  88  78
-0.972366 -10.022848 -22.439211  115  130  118
-1.407402 -20.786252 -32.478519  17  13  38
-1.047163 -8.676495 -22.439211  74  108  0
-1.047163 -8.751292 -22.439210  94  128  11
-1.047163 -8.826089 -22.439210  122  143  65
-1.047163 -9.424468 -22.439210  129  141  150
-1.047163 -9.499266 -22.439210  100  113  121
-1.047163 -9.574063 -22.439210  74  91  77
-1.047163 -9.723658 -22.439210  124  144  129
-1.047163 -9.798455 -22.439210  136  156  141
-1.047163 -9.873253 -22.439210  125  147  130
-1.047163 -9.948050 -22.439210  126  148  131
-1.047163 -10.022847 -22.439210  137  153  138
-1.522579 -20.881090 -32.626703  16  13  34
-1.121961 -8.751292 -22.439210  121  154  37
-1.121961 -9.349671 -22.439210  138  142  158
-1.121961 -9.424468 -22.439210  116  129  138
-1.121961 -9.648861 -22.439210  119  136  122
-1.121961 -9.723658 -22.439210  134  155  139
-1.626037 -20.813279 -32.520749  17  14  35
-1.196758 -9.349671 -22.439210  135  142  136
-1.196758 -9.424468 -22.439210  125  131  137
-1.196758 -9.574063 -22.439210  83  100  90
-1.196758 -9.648861 -22.439210  115  132  122
-1.196758 -9.798455 -22.439210  132  145  123
-1.196758 -9.873253 -22.439210  126  133  112
-1.196758 -9.948050 -22.439210  131  137  117
-1.196758 -10.022847 -22.439210  137  138  136
-1.736087 -20.724536 -32.551627  10  10  35
-1.736087 -20.833042 -32.551627  21  9  24
-1.271555 -9.349671 -22.439210  139  146  141
-1.271555 -9.424468 -22.439210  116  122  128
-1.271555 -9.574063 -22.439210  18  34  24
-1.271555 -9.648861 -22.439210  17  34  24
-1.271555 -9.873253 -22.439210  36  43  22
-1.271555 -9.948050 -22.439210  80  86  66
-1.271555 -10.022847 -22.439210  119  120  118
-1.846472 -20.745658 -32.584803  12  12  36
-1.846472 -20.854274 -32.584803  23  12  27
-1.346353 -9.349671 -22.439210  149  152  165
-1.346353 -9.424468 -22.439210  128  131  147
-1.346353 -9.499266 -22.439210  81  85  101
-1.346353 -9.574063 -22.439210  42  59  49
-1.346353 -9.723658 -22.439210  71  84  62
-1.346353 -9.798455 -22.439210  83  96  74
-1.346353 -9.873253 -22.439210  107  113  93
-1.346353 -9.948050 -22.439210  130  135  115
-1.346353 -10.022847 -22.439210  143  142  141
-1.957211 -20.876912 -32.620175  28  15  25
-1.421150 -9.349671 -22.439210  130  132  145
-1.421150 -9.499266 -22.439210  86  89  105
-1.421150 -9.574063 -22.439210  81  98  87
-1.421150 -9.648861 -22.439210  111  128  117
-1.421150 -9.723658 -22.439210  139  152  129
-1.421150 -9.798455 -22.439210  137  150  128
