ply
format ascii 1.0
element face 0
property list uint8 int32 vertex_indices
element vertex 1057
property float x
property float y
property float z
property uchar diffuse_red 
property uchar diffuse_green 
property uchar diffuse_blue 
end_header
-18.461303 -6.079113 -23.720903  147  151  153
-14.881945 5.505213 -29.832880  12  3  5
0.858501 10.774770 -22.630185  191  192  198
-23.830181 -12.428108 -28.737052  66  68  77
-23.861510 14.476286 -20.365227  138  131  29
-4.079617 12.374578 -23.124943  197  198  203
3.481425 0.128299 -22.876749  34  51  90
2.110757 5.838245 -22.490262  155  147  157
1.885116 1.059853 -23.242480  77  99  146
0.971937 8.890544 -23.911054  77  67  66
-8.283622 -4.864974 -25.176959  159  153  160
-26.134646 5.953005 -22.579947  76  40  22
-30.064013 -7.135027 -22.033711  202  196  217
-28.673520 -10.023357 -27.005250  86  86  86
-21.732632 -2.938020 -18.432624  217  196  179
-23.253041 14.382652 -23.787906  58  38  41
-31.887618 5.351319 -25.199808  107  97  100
-31.115130 7.118264 -29.379994  107  81  67
-20.285352 -3.556486 -22.530608  126  121  97
-8.922850 12.638541 -22.567712  65  47  56
-41.842384 9.102254 -23.153407  206  75  0
-33.680226 8.548628 -25.040856  106  85  61
-30.311292 5.043116 -26.368441  97  81  79
-28.308010 -15.603528 -28.981693  206  208  217
-30.651543 -6.860235 -20.798373  221  183  205
-17.482612 -1.176964 -31.337737  126  125  123
-36.720529 6.751210 -23.827806  208  142  97
-9.879431 11.594638 -25.829893  75  57  70
4.552513 -9.428677 -24.923285  165  167  157
-42.169759 -1.636734 -21.646223  198  198  198
-37.940064 11.670854 -22.981212  141  77  42
0.136134 12.030747 -22.863238  204  198  195
-43.078858 12.198522 -24.262728  172  69  0
-37.115942 -9.708752 -21.593911  180  79  12
-42.465757 -0.434323 -21.762905  209  209  213
-31.445452 9.840664 -26.096297  78  15  0
-24.743278 13.325566 -23.844943  63  37  30
-7.912305 11.289617 -24.848445  68  67  90
-37.878928 -7.573799 -22.646368  174  76  10
-26.013809 -1.639278 -21.862384  129  125  133
-35.407378 -0.479590 -23.253058  128  109  125
-23.919680 -9.718782 -26.506559  146  147  158
-12.517038 -11.294906 -31.159342  204  201  198
-28.040120 -8.434321 -26.124589  116  110  113
-19.575078 -10.462975 -28.308731  156  157  169
-41.200694 -13.547962 -20.833255  170  93  37
-10.451072 12.634980 -24.404206  5  3  6
-32.594457 5.884652 -25.673016  109  53  31
-39.323475 13.798085 -21.217804  189  166  138
-19.324460 -3.605465 -22.678737  99  93  106
-21.092874 -9.233408 -28.150439  176  176  178
-24.094068 16.274015 -20.715565  170  168  175
-36.148523 12.001399 -23.912282  31  17  7
-39.283638 14.055933 -22.738973  116  60  22
-23.791632 12.934668 -20.284735  88  61  0
0.820046 11.573082 -22.310304  122  115  115
-28.454957 -3.036551 -24.124534  149  148  157
-36.780723 -3.404651 -23.061718  176  69  0
-22.240512 14.629871 -24.034954  77  64  69
-42.222061 8.547451 -23.259085  182  85  45
-26.458221 11.419752 -21.464383  98  55  18
-11.814022 -9.222967 -30.334232  203  197  196
-11.251694 15.013520 -21.520008  70  45  45
-32.076405 11.471137 -24.853816  70  33  14
-25.591793 4.559850 -22.443517  108  46  30
-19.032641 0.217631 -23.349512  46  45  34
-37.454658 -13.899742 -20.651176  163  144  133
-30.819263 14.025666 -23.200347  106  68  30
-30.102332 8.344200 -26.765454  87  47  33
2.353933 3.880382 -22.878882  138  154  167
-25.615309 -0.864724 -22.023935  150  146  152
-37.643836 -15.178107 -28.892677  117  122  126
3.819576 -2.199246 -23.973079  200  200  197
-39.258338 -9.298410 -20.687245  217  100  35
-34.230755 -4.741542 -22.978352  159  144  153
-34.948003 16.131547 -18.431879  181  165  142
-1.439198 -7.808983 -32.900335  212  207  213
-22.892358 -4.784418 -20.297935  143  146  150
-9.260788 -3.052805 -24.447431  193  192  189
-8.421610 5.759095 -25.139992  199  178  189
-1.978170 -4.024434 -31.984817  195  193  193
-25.253118 13.958774 -20.184819  227  241  36
-9.949197 -0.021788 -24.911325  211  212  221
-19.746351 -23.452908 -33.093635  17  21  24
-0.516379 0.491005 -32.392682  176  182  164
-7.046633 0.026097 -25.584260  165  104  21
-26.046840 12.783956 -20.547844  94  55  27
-8.541272 13.761219 -21.362121  134  149  143
-11.075280 -19.696896 -32.830172  209  217  218
-12.011003 1.445967 -27.046624  139  134  130
1.782208 10.813653 -24.530625  133  142  140
-4.079961 2.510572 -28.352499  156  161  179
-13.171091 -18.723591 -32.411098  189  192  198
-11.849669 4.400117 -26.001964  57  55  62
-17.828009 -24.788808 -33.379054  190  196  199
-9.840863 14.673656 -21.788705  39  45  55
-6.382533 7.956935 -27.386602  130  150  121
-3.545347 -8.225033 -33.154256  191  194  184
-5.128982 -0.400702 -26.731272  181  176  202
1.963500 10.495760 -23.602982  93  99  126
-44.549993 9.729258 -23.911094  223  126  82
-0.417064 4.124138 -32.494169  48  52  51
-13.250318 2.843082 -33.447704  132  129  136
-45.564458 8.653822 -24.088546  182  61  0
-6.855432 -16.760756 -32.260560  192  193  194
-40.101374 -8.011055 -21.442641  217  101  31
-3.758847 11.236700 -23.286679  91  98  89
-44.728643 8.438436 -23.871221  188  67  0
-41.494795 -2.663272 -22.270623  255  204  181
-6.970183 -16.719624 -32.184228  188  189  187
2.683472 5.082907 -23.766708  106  128  142
-18.762768 3.533963 -23.090387  51  48  45
5.224038 -19.929651 -30.985742  202  208  213
2.945689 6.355656 -24.211779  169  176  173
2.759323 4.053026 -23.753934  119  144  154
-23.228251 12.648182 -21.945462  90  83  86
1.570821 7.733296 -24.918310  72  61  66
-7.920801 -21.211183 -32.571381  213  216  222
-29.817372 -15.242814 -28.079565  190  196  200
-5.925695 11.662422 -23.629968  56  52  43
-11.471784 -17.181436 -32.628671  212  213  213
-0.606044 5.794094 -31.897003  50  55  59
1.910746 7.687009 -24.942800  74  66  58
-22.947721 -3.261712 -20.321307  217  213  183
3.190011 8.191545 -24.472156  150  169  168
-32.999879 9.193150 -25.487828  104  90  83
-16.043223 -10.240720 -32.315551  140  144  142
-37.935245 -15.623277 -23.515546  137  133  130
-9.206925 -3.075680 -24.619286  193  192  189
-15.813483 -7.225545 -32.106222  154  139  130
-40.049951 -7.918623 -21.475079  215  100  29
-30.923299 -13.661153 -26.311919  173  171  184
-21.968437 -13.049942 -28.385206  35  42  41
2.266719 4.486974 -24.434265  82  120  151
-17.476103 -0.473247 -31.041268  111  108  103
-3.999365 -6.380038 -32.658614  167  144  149
-25.512368 6.344190 -22.321745  107  92  74
-3.643280 12.630098 -23.651982  57  44  39
-20.583572 -3.121274 -19.541572  14  16  17
-35.722162 -5.199661 -23.145640  181  71  22
0.529159 8.097244 -24.334710  32  26  20
-27.180126 16.284168 -20.024329  66  51  73
-6.943091 -1.577196 -25.647799  111  81  106
2.782941 10.114493 -26.700455  7  40  56
-17.671669 -22.686376 -33.288498  119  117  115
-33.249760 16.440023 -19.043999  137  110  79
-35.861908 3.674978 -24.317928  177  67  0
3.392547 9.130881 -24.278172  137  133  130
-33.547739 6.187386 -26.393483  97  46  29
-25.108505 3.388448 -22.313098  119  104  107
-10.763255 10.715081 -23.859473  153  154  171
-13.744329 3.124128 -33.323574  102  78  71
-4.987907 10.811003 -23.402317  80  61  63
-27.519272 6.066487 -24.997412  80  63  47
-15.781337 -3.889334 -32.250728  148  125  118
-14.537444 -21.848868 -33.459672  184  190  196
-33.869702 14.267197 -18.197276  166  148  122
-9.077249 14.188708 -20.420880  11  14  14
-13.631382 -14.151816 -31.644170  136  124  114
-23.292612 -22.081643 -32.905024  189  194  199
-5.029492 12.506702 -23.619318  69  49  38
-7.519358 -6.588118 -27.600065  200  204  208
-7.339961 14.282199 -25.837270  66  48  54
-34.741190 11.413838 -24.390731  65  15  0
-9.018972 -17.006507 -31.138004  181  183  189
-24.993436 14.213442 -20.025443  222  227  42
-21.130448 -10.102531 -28.386855  151  153  160
-21.104601 12.351890 -21.351732  83  70  65
-17.973526 -2.945345 -24.027945  152  156  144
-38.500552 -2.402829 -21.508814  217  108  40
-24.404419 -8.508785 -26.609269  133  135  144
-11.462054 11.176186 -26.443568  33  27  23
-0.511873 12.102973 -23.308350  125  118  109
-43.103927 -1.418024 -22.411672  201  201  204
-30.967044 9.680903 -25.963538  91  18  0
-37.778604 13.683807 -21.801032  119  67  14
-39.315348 13.658354 -20.940004  182  147  98
-23.841940 15.710118 -20.367554  164  163  172
-37.105999 6.604107 -22.705511  164  61  0
-26.341412 14.156348 -20.129184  162  134  29
0.063771 -23.028471 -31.688839  19  95  53
-25.527452 -1.096625 -21.698549  133  131  138
-21.741957 -5.632726 -20.218920  192  193  207
-11.489751 14.972755 -21.918872  51  33  29
-40.852814 10.891430 -23.226855  220  106  36
-25.385639 -11.491773 -28.406362  12  14  19
-22.627089 13.921249 -22.537520  66  45  41
-38.086846 -7.866826 -23.362740  198  95  25
-39.101820 13.052441 -19.915509  132  92  42
-39.509713 15.604040 -20.026162  196  178  149
-38.836069 4.255181 -21.566829  203  84  7
-37.686439 -5.902124 -21.238825  170  88  46
-23.116703 -9.982435 -27.998499  148  149  154
-38.320319 14.383934 -21.326305  180  161  134
-34.398238 -6.125252 -23.113803  169  161  168
-38.230090 -12.841304 -21.143915  187  82  6
-37.671421 9.905522 -23.108423  169  132  141
-30.920467 -1.770289 -22.483892  163  161  173
-30.604958 13.240729 -20.533218  106  63  28
-34.537270 -8.063938 -23.987301  98  41  61
-15.748490 4.376214 -32.842133  114  33  0
-43.249154 -8.587816 -21.678111  214  214  217
0.992751 6.813241 -25.039111  85  75  74
-25.231487 12.749085 -23.227131  79  34  21
-5.997873 -14.276876 -32.569470  140  126  117
-11.531974 -9.417139 -30.264985  200  197  201
-10.089893 1.451447 -24.977064  166  170  177
-39.940300 9.273660 -23.948785  143  62  16
-10.902334 12.498899 -24.368024  65  58  53
-15.623827 -13.128259 -31.791472  141  141  143
-43.082146 -5.883185 -21.993011  216  215  218
-16.860382 8.554686 -28.859225  7  6  11
-37.778526 -14.009858 -23.068033  175  93  38
-16.132862 0.626639 -32.896156  132  65  32
-17.292389 3.526443 -32.092231  123  111  116
0.578690 5.653399 -25.973297  151  151  165
-3.732197 9.710073 -23.378963  82  69  68
-16.245515 -11.530985 -32.397806  141  142  143
-37.377563 -9.709644 -21.528013  184  82  19
-24.286982 15.201093 -20.216985  229  224  101
-35.254457 -16.192800 -27.775406  181  183  192
-33.509680 13.447454 -22.302247  97  59  18
-39.329531 -0.411811 -21.733339  233  108  43
-36.769090 -11.152977 -22.320933  188  88  18
-32.809603 -4.516835 -21.984701  198  197  207
-5.844711 6.149409 -26.284617  145  143  142
-8.264329 11.575335 -25.333370  55  46  73
-2.150961 1.374957 -31.248391  164  168  183
-8.860030 5.930580 -25.055306  37  66  62
2.419868 12.103882 -23.127536  79  82  89
-9.113220 5.910347 -25.024938  224  200  201
-7.503031 7.753002 -27.412782  197  200  184
-7.995397 7.356552 -25.374413  191  196  114
-15.785440 -14.004540 -28.495111  198  200  200
2.553602 0.309584 -24.007490  109  125  163
-49.288412 -16.752618 -26.158085  24  18  15
-9.756325 14.113244 -21.477590  138  139  143
-6.097929 5.659733 -25.646890  47  61  59
-40.533302 -17.268693 -26.070741  168  184  180
-4.007327 10.670982 -22.714977  90  91  102
-45.602352 7.673322 -23.943642  185  141  123
1.427943 -0.876676 -25.081434  199  203  200
-11.911912 6.145932 -25.501494  2  0  0
-27.131660 14.283891 -19.737912  79  45  35
2.006556 10.402234 -23.308229  94  112  120
-6.559261 4.289179 -25.625376  157  152  97
-15.577665 -15.200837 -30.937843  198  200  200
-17.413731 -2.351200 -30.308821  149  144  154
-29.904967 -8.327987 -25.911291  85  28  66
-20.308227 -13.616600 -28.563369  105  110  117
-4.741370 -2.384130 -28.817232  168  124  137
-1.751104 12.505143 -23.473252  194  206  217
-44.732188 8.105880 -23.608222  202  75  24
-22.956505 12.925140 -22.395359  97  89  93
-18.074094 -5.417745 -22.992958  129  135  135
2.223466 6.204186 -23.591574  171  159  162
-18.131946 -3.796045 -22.466824  19  17  9
-15.785324 -14.005209 -28.496488  198  200  200
2.821870 8.940610 -23.951040  141  146  146
1.841745 7.442070 -24.530834  27  59  95
2.107579 3.597307 -24.505055  19  64  115
2.567526 7.252185 -23.764380  93  114  138
-26.234545 -10.448818 -26.437926  19  22  27
-31.255481 8.144953 -25.375903  127  71  49
-35.829482 -14.146080 -22.159553  91  77  59
-25.800168 -3.707762 -21.423102  157  158  163
-5.513568 12.586526 -23.240501  54  38  12
-32.585029 8.824065 -25.199901  91  64  50
-45.819721 9.874412 -24.362495  148  93  64
-10.242727 6.903979 -25.169418  191  196  190
1.344460 11.124550 -23.274030  124  121  139
-35.005865 -9.551451 -22.052524  191  72  10
-24.719291 10.591988 -21.783957  85  63  54
-22.780338 -3.375684 -21.064627  158  154  138
-42.213039 9.010163 -23.464677  208  90  49
-26.483112 5.924705 -23.129559  79  52  50
-38.778423 -10.417622 -20.470127  204  119  71
-46.467580 4.982171 -23.685694  192  80  9
-24.688762 -3.395763 -21.375386  133  135  132
-21.899394 -13.543682 -28.278661  93  100  110
-35.017848 7.895142 -23.695469  156  149  149
-37.498699 -18.188622 -25.773286  241  248  249
-14.155798 5.934250 -29.563101  10  3  11
-8.446324 -6.096879 -25.457281  222  225  224
-24.040802 -8.871609 -24.747895  121  124  129
-26.101396 14.406643 -19.682491  255  242  229
-0.787332 11.224029 -23.086334  83  80  61
-46.456279 3.827591 -23.519935  190  77  8
6.901494 -16.976349 -31.671766  140  143  161
-19.448753 -3.378103 -21.673069  101  97  89
-17.038860 0.687913 -31.936130  104  82  56
-21.006805 13.195437 -22.016667  75  71  74
-8.983453 12.676847 -22.546644  57  46  54
-41.646615 10.897228 -23.980252  83  41  0
-41.659868 13.619722 -20.493365  154  109  66
-22.690807 -12.266046 -27.999943  19  23  27
-20.806832 -10.391398 -27.683003  148  150  158
-24.445016 12.706330 -22.558870  75  42  41
-29.252736 -13.271253 -27.169517  127  133  134
-23.778263 15.650219 -19.650040  170  172  201
-37.813522 -12.493561 -20.902511  190  92  21
-12.369932 -11.282089 -31.517061  204  203  201
-22.169876 -10.161147 -27.491908  145  147  155
-28.072269 -9.649063 -26.019792  20  17  27
-28.426501 7.579296 -26.041672  96  82  69
-39.172948 -5.215119 -21.403511  214  108  40
-33.448424 12.968317 -20.456307  101  62  54
-17.179981 -0.845482 -31.289011  111  108  105
-39.181749 -2.346568 -21.406575  193  111  51
2.022445 6.164323 -28.922598  132  139  148
-40.532923 -17.268381 -26.070263  168  184  180
-39.058974 14.145642 -22.232798  126  65  8
-28.394442 -8.406036 -25.815404  170  147  166
-18.954865 -11.157171 -28.318009  159  161  170
-32.700669 -0.701520 -22.338066  152  152  162
-31.091521 6.955849 -25.470551  142  97  65
-31.367288 9.689417 -25.702453  97  18  0
-42.729279 -0.393781 -22.015722  217  217  206
-43.777399 -14.369190 -22.501822  121  118  129
-20.189324 -8.832133 -27.704453  187  191  191
2.120599 4.633005 -24.437183  33  79  119
-33.423907 -11.358685 -22.136371  142  144  148
-42.824326 3.850892 -22.678306  230  188  132
-30.001470 8.432015 -26.178243  75  38  20
-0.571437 5.209569 -31.914419  51  48  40
-37.291954 11.748914 -23.321998  149  52  0
-43.073156 -6.317312 -21.705538  205  215  232
-31.242360 11.190706 -24.534384  66  30  19
-34.610878 12.826149 -22.159924  115  63  8
-39.528976 -9.442077 -21.055695  211  103  40
1.465334 0.528899 -30.224678  177  181  180
-25.894218 -1.578424 -21.537579  126  124  128
-35.875923 9.918082 -23.832614  163  159  147
1.977261 -0.945885 -24.316414  134  142  156
-34.484994 14.973015 -17.751043  191  174  159
-35.377140 15.489255 -16.735532  183  170  151
-34.214603 15.271582 -16.769135  198  186  172
-28.665487 12.429403 -21.259230  100  48  12
-28.271672 -3.025568 -23.928734  156  159  173
-11.861702 14.269979 -21.746152  62  47  51
-34.315201 -5.056206 -23.019749  175  175  194
-32.843625 11.676892 -22.305355  114  67  27
-46.682297 1.889157 -23.482657  200  87  18
-10.840374 1.272352 -24.778961  161  160  172
-32.972886 -7.899261 -23.885615  111  38  82
-27.209962 9.422700 -23.424789  47  22  2
-34.145438 1.880233 -23.729591  163  152  166
-31.946563 12.690193 -22.007577  97  52  24
-36.378889 6.552070 -23.197838  164  65  0
-24.482486 -11.268741 -27.006373  20  23  25
-6.847803 13.217099 -24.817504  66  48  48
-9.719849 -0.059960 -24.871317  87  90  97
-24.797779 13.217992 -18.895673  255  212  152
-10.461152 7.844663 -24.682563  181  185  182
-8.798587 5.889845 -24.589006  199  182  212
-47.297151 -13.910125 -22.095496  70  55  29
-7.240416 -0.058064 -25.204670  226  126  49
-9.651101 4.015123 -25.762587  78  86  98
-7.973023 6.774018 -24.799638  159  177  174
-5.157072 2.870266 -25.910385  106  112  119
-7.531242 4.853855 -24.737228  165  190  133
-8.827997 -1.317124 -25.313137  149  157  133
-7.511362 8.385773 -24.985065  152  125  54
-10.336707 14.209882 -21.041852  32  34  24
-10.771560 -1.161391 -25.267951  240  237  238
-20.456981 -5.258863 -21.111186  64  65  68
-44.504100 8.710244 -23.976696  215  169  144
-25.797349 -5.321536 -21.500887  179  184  191
-4.804167 -0.488720 -26.896949  16  27  43
-6.270587 3.860244 -25.327637  93  79  102
-5.466686 10.393738 -22.432232  79  69  62
-40.888890 -8.357630 -22.402440  179  109  67
-12.023798 6.330296 -25.045263  10  9  12
-46.078451 6.477917 -23.538778  77  73  81
-34.779778 9.830169 -24.396944  96  82  54
-43.300670 7.273789 -23.444781  152  120  119
-40.291212 12.399268 -23.386782  70  32  0
-41.196087 -4.464567 -22.304101  204  114  50
-38.222728 9.906639 -22.191617  178  137  124
-12.000715 1.528522 -27.532586  138  129  128
-29.607073 -15.051316 -27.591195  222  227  229
0.742868 10.264094 -23.148228  24  31  25
-42.399009 -2.757089 -22.501007  194  197  190
0.678280 7.487153 -23.716884  74  61  48
-40.157026 -7.863462 -21.777566  221  105  35
-38.909355 6.773040 -22.373625  164  64  0
-33.178510 9.222930 -25.317646  98  91  90
-6.058276 12.126889 -22.805177  74  57  51
-23.064275 -3.228033 -19.931531  110  114  59
1.558070 7.505220 -24.431820  105  123  127
-21.647962 -12.673638 -27.584662  48  56  57
-35.537080 3.873761 -23.951675  180  71  1
-43.128819 -4.821981 -22.410034  218  205  213
-33.332911 16.473465 -19.297411  146  126  107
-47.204440 -1.896224 -23.467221  215  94  16
-37.710093 11.745272 -23.373936  120  42  3
-36.328157 -12.309704 -22.631817  170  74  14
-24.236703 -3.457672 -20.758065  79  69  76
-32.058844 5.451872 -25.092302  146  140  155
-29.475697 6.470456 -26.011103  109  55  34
-24.980824 13.853942 -19.764857  232  232  74
-30.488590 5.361365 -25.492045  100  93  91
-20.303939 -3.485351 -21.994650  9  9  4
-3.631592 11.486954 -22.073437  23  23  27
-21.070001 -10.107285 -28.180915  145  150  156
-26.669309 -9.847923 -25.331171  19  21  26
-12.371150 4.911556 -24.917189  45  45  44
-42.084494 11.977819 -23.369739  103  47  13
-23.607087 -8.422533 -26.429252  136  136  143
0.135731 12.070709 -22.878705  195  200  181
-26.532124 -14.729002 -27.383148  173  178  187
-48.098919 -10.671589 -22.985574  209  105  39
-9.459240 12.601911 -22.014274  61  55  52
-5.537672 10.370249 -22.445141  77  66  59
-6.194457 11.791806 -26.934644  37  38  55
-21.552436 -3.305746 -20.527728  13  10  0
-39.376787 -19.807779 -28.115385  240  246  247
-33.870450 -7.611147 -22.766132  152  110  135
-27.946061 -8.386165 -25.830005  110  110  109
-23.950757 16.010695 -19.950806  178  180  200
-19.154739 -10.985760 -28.270876  156  162  169
-39.677439 13.847810 -21.249013  129  90  32
-23.861200 -11.457304 -26.801459  17  21  22
-33.269642 -0.746532 -22.769766  173  181  192
-36.522541 10.318861 -24.091637  152  122  128
-33.140360 14.874288 -21.826013  91  51  29
-35.519234 -9.509174 -22.625436  194  90  31
-11.543824 14.389974 -20.511898  57  41  42
-37.106332 -10.761400 -22.209542  171  71  6
-25.456536 -1.138674 -21.983614  124  123  131
-29.533611 8.018492 -25.897206  98  58  34
-43.443261 14.025938 -21.305014  190  154  97
-30.186673 5.526029 -25.513931  96  68  55
-25.568907 -1.451658 -21.790613  125  127  126
-21.311416 13.579044 -22.145525  88  83  79
-43.588502 -1.567687 -22.875677  202  207  209
-10.187994 11.767488 -22.892197  22  23  35
-44.011196 -8.980260 -22.403477  215  217  222
-37.034439 -5.552927 -22.600664  186  88  37
-37.734333 -9.919216 -21.782784  186  82  18
-28.210391 -13.860367 -27.784466  135  137  149
-38.818518 12.567742 -23.284538  24  19  10
-38.268219 7.559414 -23.227702  196  112  99
-22.078610 14.084820 -21.954470  96  72  70
-33.223811 5.737423 -24.384350  119  107  95
-35.212112 -0.442465 -22.922514  173  88  57
-10.299146 10.836242 -23.978961  69  65  73
-28.374059 4.277068 -25.916260  127  128  131
-32.016530 6.790062 -25.241686  115  37  0
-37.935431 6.797318 -23.292258  166  66  7
-37.781312 10.007800 -23.511732  159  145  153
-29.377819 6.641253 -25.980415  99  55  37
-39.483856 -0.335752 -21.886001  226  109  32
-27.622749 12.197646 -22.340698  88  43  8
-38.642482 -2.611263 -21.924222  204  99  33
-42.021854 16.373868 -20.278034  191  175  149
-43.863403 -5.996533 -22.525826  216  218  220
-33.638673 12.471904 -24.123367  102  59  19
-36.745094 -17.102109 -26.960889  202  208  218
-43.904351 -11.036684 -22.038657  214  216  219
-25.518981 -12.257259 -25.299008  118  123  126
-46.537976 8.727984 -24.429394  152  119  107
-10.541852 1.343243 -24.604725  155  159  167
2.685737 -12.346743 -27.462642  111  110  100
-34.962038 13.586796 -23.222898  112  63  33
0.406518 11.432403 -21.882266  92  93  77
-8.845927 -0.051684 -25.622719  173  174  173
-8.522731 4.721742 -23.227365  168  128  115
-8.262432 5.471449 -25.301405  217  200  147
-43.467207 12.804657 -20.132866  202  161  105
-25.821017 12.331840 -19.691249  75  42  50
-7.924578 4.990171 -25.340764  173  180  181
-8.226556 -0.044044 -25.607143  20  17  21
-7.535613 7.326927 -25.504291  136  113  87
0.575090 10.397302 -23.980145  228  220  214
-9.472176 14.508756 -22.102791  140  140  161
-23.471426 -5.132026 -22.034765  87  92  99
-7.587540 -0.041776 -26.060326  24  22  19
1.443685 -0.943505 -25.047002  197  199  195
-6.389353 7.854932 -26.974076  109  126  90
-43.548824 9.334514 -22.863451  189  86  36
-27.136055 14.222301 -19.679778  234  224  101
-44.857498 8.426743 -23.390599  152  88  35
-37.872408 -10.751700 -20.955578  255  207  198
-48.367018 9.964611 -23.973550  78  41  22
-38.576093 -8.980616 -21.578679  216  131  84
-2.408483 4.549663 -28.843599  46  44  58
-4.761662 -3.609006 -29.712730  157  119  128
-36.525043 -11.613780 -21.270832  243  151  69
-43.983162 7.788345 -22.934621  189  91  16
-42.035153 -3.056148 -21.554702  203  214  223
-48.530506 5.420072 -23.494282  166  97  68
-35.124201 -7.664790 -22.437542  137  99  88
-20.316987 -13.631372 -28.666445  99  101  111
-22.882309 12.360005 -21.162525  95  87  95
-35.535025 -14.120690 -21.989668  161  154  156
-6.053068 11.508725 -23.368676  11  8  19
-39.929428 -7.967760 -21.263234  228  114  44
-7.568350 -1.618164 -25.376809  118  85  97
-17.601510 -0.465278 -30.716148  56  56  55
-40.773039 -2.577622 -21.466365  221  97  21
-24.839764 12.307535 -19.812554  67  27  33
-26.034757 -10.151280 -25.645596  11  11  19
-24.087588 -4.300583 -21.647936  29  23  22
-32.475509 15.975039 -18.563444  133  111  80
-33.594803 14.358724 -19.685360  148  131  101
-5.922940 -5.716824 -30.247042  203  205  202
-44.244373 -19.636127 -29.322786  167  176  168
-42.199003 11.790327 -23.333511  149  48  0
-10.107018 6.976282 -25.473444  188  190  181
-35.146976 -9.624393 -22.209173  181  75  12
-1.223254 6.086594 -30.280266  67  66  72
-29.596888 6.210410 -25.660359  102  84  61
-23.050891 -3.716098 -23.026648  89  87  111
-8.864861 8.696946 -25.523982  202  199  162
-31.999855 -8.313006 -25.696944  118  76  103
-21.933769 -13.546622 -28.212340  100  104  115
-41.262834 8.625853 -22.425926  221  93  25
-23.730107 12.777303 -19.982508  97  66  61
-34.766793 7.928676 -23.505559  165  155  153
0.788966 8.136043 -24.745533  27  20  16
1.636355 9.225596 -24.682171  71  76  64
-5.324134 12.356996 -23.358780  71  59  57
-32.702172 5.824927 -23.742707  128  93  79
-33.683744 14.062213 -17.706871  199  183  171
-38.909808 -19.038388 -26.954038  241  247  247
-29.195355 4.612538 -25.464737  130  127  130
-28.079396 -15.115771 -28.232798  228  235  242
-34.273736 13.632568 -20.305830  98  55  21
-34.229762 -6.024403 -22.771378  176  147  147
-24.383314 12.460270 -22.266779  69  37  26
-8.127844 -6.607832 -27.290205  12  13  29
-24.017039 -8.589075 -26.883028  133  133  142
-45.980069 4.778023 -23.047842  197  76  1
-4.306080 -14.531172 -27.299186  181  185  186
-26.214567 14.566067 -19.909979  202  191  23
3.740300 6.622865 -31.410406  153  160  159
-28.178563 6.249567 -26.746984  104  78  55
-11.253200 14.969078 -21.713113  55  32  39
-27.474149 -9.136612 -24.165772  88  85  90
0.216240 6.112708 -30.636329  105  108  105
-39.116902 -2.491647 -21.406452  211  173  168
-24.736116 -11.294757 -27.265412  20  20  21
-22.294697 -10.370585 -28.259080  128  134  141
-33.526904 13.313469 -21.612970  96  61  30
-34.429200 11.182000 -23.799888  154  41  0
-26.076478 -1.723694 -22.226979  133  133  139
-23.745452 15.643586 -19.871498  170  168  188
-46.520261 8.377009 -23.316234  170  86  40
-37.125734 -9.495988 -21.502363  199  96  35
-41.056853 16.629363 -18.016287  164  146  122
-22.399893 13.906572 -21.977828  96  74  71
-8.967277 12.813153 -22.719887  52  50  54
-20.055767 -10.484884 -28.872912  177  182  189
-46.936028 -11.018014 -21.921758  214  103  33
-38.554587 8.694765 -22.014986  168  73  23
-11.320526 -0.054056 -25.084289  175  172  187
-0.798654 11.896458 -23.076217  35  37  31
-39.788974 -9.581180 -20.968121  219  110  55
-21.700707 12.910412 -22.243528  129  118  107
-12.661049 -11.398186 -30.888549  202  196  195
-46.197536 -4.856361 -22.139439  208  102  31
-31.741251 -7.776840 -23.801607  114  50  82
-37.699938 6.588045 -23.370691  181  79  18
-46.930282 -12.385412 -21.791693  215  102  29
-32.434731 12.971657 -22.259866  99  62  27
-31.150766 9.593757 -25.313297  88  26  0
-7.569875 11.820920 -26.042823  186  190  203
-23.062282 -11.804314 -27.337769  29  27  32
-38.245433 -3.291562 -23.814389  190  78  10
-40.661962 9.558760 -22.377788  207  96  18
-26.548718 -8.508070 -25.993243  136  137  146
-32.107086 6.674295 -23.588638  148  94  67
-25.698340 -12.375241 -25.961849  122  123  122
-35.778078 -13.909012 -27.981789  110  113  111
-37.891720 13.627209 -21.094827  167  118  61
-28.080759 -0.563269 -25.123098  152  150  160
-25.084383 14.718993 -19.267451  255  255  169
-35.254664 4.977780 -23.195037  178  68  0
-12.199384 13.976902 -21.482891  65  53  52
-10.635109 1.286988 -25.395839  150  152  158
-46.867236 -9.361811 -22.010758  217  99  27
-42.100846 -13.916916 -21.269382  147  149  145
-37.577486 3.097987 -24.283641  172  67  0
-37.449313 -18.356147 -28.473608  181  186  191
-39.068746 -0.034018 -21.416277  225  114  39
-36.474853 11.571162 -23.145156  148  52  0
-33.171082 11.315318 -24.738720  36  9  0
-25.895000 -8.365484 -26.296040  133  135  139
-37.937234 -2.731812 -21.372306  194  78  11
-36.340643 -9.454148 -22.105080  184  83  35
-11.373752 11.863346 -23.495741  65  49  50
-47.887089 8.456856 -23.087150  59  17  0
-12.971321 13.242860 -22.207544  68  47  49
-29.633586 -1.998007 -24.317154  135  133  142
1.179600 0.551710 -24.820775  193  195  186
-32.717304 14.605465 -21.601969  101  62  34
-28.993345 7.724872 -25.935646  87  42  20
-19.759684 13.859829 -23.283445  52  41  47
-19.415966 -10.085931 -26.409661  137  142  146
-27.502403 3.513636 -24.310950  130  127  131
-37.157897 10.005262 -22.404464  187  123  106
-6.473047 -13.683021 -30.864566  124  110  101
-22.310212 -24.278075 -33.596997  195  203  206
-1.155357 -7.914731 -33.443002  206  210  206
-20.330984 -17.815734 -33.213039  197  205  211
-24.027067 -18.944635 -33.526327  183  194  196
-10.939709 -20.060828 -33.471041  230  221  232
0.446145 0.342746 -33.246034  149  157  151
-10.247811 8.067227 -25.407863  61  78  97
-8.114329 7.457403 -26.226737  199  191  152
-8.797035 6.040978 -25.794237  171  156  86
-8.087179 7.443763 -25.327666  123  119  101
-32.686793 15.195047 -19.104163  143  125  92
-19.860988 -23.857095 -33.734801  21  25  28
-0.835057 1.459812 -33.226798  172  177  185
-35.764056 13.004622 -21.093237  131  81  38
-32.089228 -14.779160 -27.803127  74  76  71
-1.987800 -24.636229 -32.152875  202  209  218
-13.120780 -19.051726 -32.981567  184  193  200
-6.617296 -0.094532 -26.416960  146  129  138
-17.793125 -25.316053 -34.178253  199  214  212
-3.180199 -8.480905 -33.978642  217  221  223
-4.494378 11.147664 -24.238872  77  61  69
-34.044773 -14.346867 -28.078667  129  134  134
-11.738632 6.444857 -26.108536  147  143  123
-12.885631 2.872334 -34.826496  133  125  126
-2.619179 4.491640 -28.756923  152  169  139
-17.828495 -15.233635 -29.923551  150  154  164
-43.747866 7.985126 -22.915798  200  85  16
-10.942201 8.777490 -27.049625  50  36  31
-51.818801 4.551565 -25.220236  117  125  132
-12.484708 -0.725061 -25.581114  183  175  178
-23.478810 12.549472 -21.725472  81  69  73
-40.133350 -14.547380 -21.266495  168  179  177
-3.019508 -6.612507 -33.136133  205  207  208
-4.783020 11.992550 -24.183597  83  66  60
-35.039709 3.653464 -22.998112  211  109  56
-23.813467 14.305558 -19.985104  163  155  54
-15.958902 -9.566252 -32.771362  208  209  219
-21.683742 -12.796434 -27.857866  27  23  26
-23.846396 -4.195858 -21.255962  28  25  25
5.288626 0.658302 -33.107965  67  72  64
-32.623997 8.963208 -24.932396  97  87  80
4.560641 -17.394246 -31.983423  180  189  193
-18.040948 -3.887300 -22.956291  140  131  127
-24.824203 10.443535 -21.796149  76  57  48
-35.303360 -5.135070 -22.489227  184  74  11
-13.039354 2.991540 -34.844911  132  128  122
-15.229652 2.879351 -34.283267  104  109  108
-14.563960 5.765761 -31.567532  65  52  30
-30.338935 -14.571727 -27.696233  222  230  234
-5.139944 13.115084 -24.639870  62  54  51
-27.128970 12.898966 -19.532110  52  18  0
-17.637624 -23.312565 -34.280504  116  124  121
-33.009319 5.584685 -23.755913  114  83  61
-43.202597 8.401154 -23.061064  159  116  78
-9.886854 -7.707314 -32.143259  196  190  190
-8.323949 -21.506068 -33.250416  211  215  223
-4.589996 11.037438 -24.189554  79  64  71
-32.896934 15.956772 -18.743248  135  118  83
0.355579 11.707475 -24.359969  0  0  0
-12.333086 10.299388 -27.172588  68  54  49
-14.545770 -22.252751 -34.087471  168  180  185
-21.133719 -3.226984 -19.909282  98  84  74
-22.271370 13.559617 -23.568547  90  91  93
-42.405561 -1.637084 -21.726190  207  210  212
-14.033080 6.688642 -29.983159  29  23  28
-40.430685 10.696164 -22.711713  231  109  31
-15.206087 4.792740 -33.480415  69  12  0
-30.398320 5.601073 -25.970983  95  47  32
-34.455293 10.968104 -23.999652  143  43  0
-33.084715 -8.454042 -25.809159  202  159  177
-44.372681 12.356861 -19.746103  231  226  224
-25.191006 14.293470 -19.639532  205  202  0
-11.971058 5.244154 -26.612871  15  13  25
-26.696851 -15.119257 -28.141412  216  224  231
-42.574915 -0.414965 -21.837935  218  220  226
-49.117099 -1.424028 -22.968109  22  17  25
-23.443123 -22.338613 -33.537013  191  199  206
0.654282 -23.939305 -32.132397  142  173  137
-42.233560 14.061701 -21.277270  180  154  127
-13.524906 -14.221501 -31.981249  136  125  122
-28.794193 7.092884 -26.598268  85  36  15
-20.790009 -10.565040 -28.296455  154  158  165
-31.764441 5.697162 -24.231256  107  37  1
-46.254490 10.033322 -23.456774  61  32  16
-21.965506 -20.257178 -33.489888  206  214  222
-24.384721 -11.190073 -26.657382  24  21  29
-39.459742 -9.437917 -20.921283  223  110  48
-8.254252 -7.600734 -32.485217  43  42  47
-47.860013 0.836351 -24.294607  209  116  41
-46.722754 -10.068829 -21.753192  216  104  39
2.611160 0.687115 -34.497535  52  49  24
-28.195018 12.899380 -23.686091  102  54  12
3.926080 6.573785 -30.810634  143  144  146
-19.390210 -3.583428 -22.867206  92  94  100
-38.968695 -19.286779 -27.830428  166  178  177
-28.526809 5.716073 -27.419614  107  29  0
-29.927996 13.599992 -23.024355  101  54  10
-25.057730 12.535003 -23.126686  71  33  34
-43.210077 13.065061 -22.191370  111  57  13
-42.811407 -8.383607 -21.220995  217  220  225
4.441862 8.020852 -30.157857  86  80  73
-3.970729 13.746271 -24.315700  39  36  46
-15.972486 -0.038282 -30.301953  127  122  120
-47.008258 7.791808 -23.569992  41  18  17
-30.472205 10.600250 -22.977261  72  35  14
-32.244076 12.864450 -22.582459  92  51  15
-12.138703 -17.279623 -33.088087  214  217  214
-36.543530 10.290299 -23.988983  100  74  78
-6.115931 1.614485 -26.289935  141  146  155
-8.990599 13.590596 -23.371122  65  49  32
-1.097353 -23.144078 -32.258491  199  207  210
-31.826410 -1.875863 -23.140987  178  178  187
-33.662658 -7.492483 -22.293102  176  138  139
-16.392341 -12.878140 -30.588663  151  155  159
-9.243522 11.910980 -26.445597  56  48  51
-6.084105 12.375748 -24.888177  66  51  53
-22.290943 -24.259107 -33.575252  195  203  206
-6.739608 -15.723919 -36.116555  133  119  101
-36.264735 12.290947 -21.825060  108  66  42
-24.105140 -9.929063 -26.926374  156  160  170
-24.627329 -12.811312 -26.790465  113  119  118
-37.965876 -12.677527 -20.638522  207  106  41
-9.500812 1.405205 -27.787401  189  190  198
-38.309443 14.540281 -18.619965  202  185  161
-8.618576 -15.410717 -35.565250  150  133  126
-32.249374 11.416293 -24.104164  74  41  17
-35.228089 2.243802 -23.290047  188  75  15
-28.604985 11.295103 -23.181428  81  45  19
-32.814545 10.187302 -24.413953  74  12  0
-4.012290 -13.301484 -33.787738  159  160  154
-11.173472 -9.028981 -31.719187  200  198  198
-3.566390 -17.060349 -33.712398  83  74  59
-24.972159 -25.004578 -33.218430  223  233  231
-20.242884 14.455026 -20.272551  61  40  36
-21.592734 14.642477 -24.055806  85  79  87
-10.868524 12.071464 -23.184048  62  48  58
-14.236081 8.770569 -31.496100  8  7  8
-19.808191 -21.387818 -33.442388  190  198  202
-29.869022 -2.518544 -24.513408  154  152  157
-39.960148 15.145350 -18.577189  188  171  146
-27.594070 -13.054479 -27.117672  84  89  92
-11.975415 -10.884859 -31.896166  202  199  198
-3.570720 10.031120 -24.148540  81  74  67
-44.182084 7.121814 -23.014760  155  90  31
12.804388 9.281120 -45.565706  113  115  126
-28.650826 -3.114160 -24.659861  153  155  161
-42.085591 5.458472 -22.364350  206  208  214
-7.778933 12.057575 -26.502758  71  67  89
-7.678426 7.424868 -25.177158  193  180  168
-8.707087 -0.059257 -25.404063  34  26  30
-23.954924 13.893003 -19.992223  125  126  0
-51.176706 -17.435089 -27.796845  7  1  24
-7.459853 4.839781 -25.061251  154  194  157
-26.028449 12.574478 -20.183038  106  67  45
-6.428488 -0.152140 -26.339420  182  109  60
-10.162682 14.409007 -21.477519  32  32  37
-9.817373 -0.058919 -25.598867  158  171  183
-40.016946 -8.015408 -21.460478  199  106  61
-10.764227 -1.200379 -25.752588  167  163  157
-44.894970 9.836019 -24.350097  193  150  130
-5.126965 10.786997 -22.922038  37  36  42
-54.812769 4.922453 -27.242789  123  116  121
-11.491993 2.615443 -30.880434  128  126  135
-39.341090 -6.733048 -21.705128  187  94  28
-41.106949 -2.622862 -21.858217  255  200  178
-44.014677 8.276406 -23.534094  194  90  35
-46.589042 -16.273959 -24.754892  157  164  159
-34.452503 9.586079 -23.747597  167  154  139
-11.471555 5.603528 -25.348469  101  114  96
-46.797989 10.684699 -23.924862  63  40  25
-23.108956 12.367124 -21.320400  91  87  72
-31.058275 -13.520281 -26.246482  201  208  212
-32.772347 8.863155 -24.571152  95  93  85
-25.880236 -3.737414 -21.617629  170  176  185
-29.801631 -15.271435 -28.038624  178  186  193
-39.506088 -7.563559 -21.027847  217  192  186
-24.444241 -3.502988 -21.171774  127  121  112
-6.157437 11.543325 -23.325076  59  56  54
-52.138139 6.906788 -25.133814  4  0  7
-24.533975 12.467110 -19.618744  226  188  53
-23.016310 -3.446200 -21.173863  219  224  245
-49.685978 1.486691 -23.866917  34  22  28
-39.284803 -10.563835 -20.902285  203  121  77
-41.796572 8.835669 -23.012543  203  109  36
-47.340196 -7.628866 -22.879649  224  110  41
-5.781680 12.313788 -23.118505  67  49  46
-27.847999 7.360752 -26.857625  87  74  49
-35.761278 8.317470 -25.346712  112  100  88
-27.166692 16.233379 -20.054347  65  50  45
-43.527670 11.453276 -23.304741  130  53  31
-11.326601 1.815275 -31.300345  14  8  7
-36.374953 -12.240910 -22.639667  197  100  45
-47.095133 -5.315015 -22.962487  223  109  38
-38.012848 11.736383 -22.865296  153  61  25
-45.906075 12.476486 -20.120964  232  227  230
-27.494513 -14.823107 -27.622261  198  206  212
-21.996598 -13.481938 -28.025294  96  100  110
-14.475127 -13.795140 -30.919495  135  140  140
-41.936379 13.729111 -20.745819  137  91  63
-42.152322 -2.743565 -22.174880  223  216  230
-47.479471 -10.611948 -22.650230  224  111  45
-21.807615 12.066313 -20.739341  102  97  98
-6.725891 11.447117 -25.900340  52  53  68
-29.295739 4.674945 -26.173670  123  121  126
-33.254306 10.326432 -24.426729  89  64  33
-46.376210 4.821967 -23.596560  206  80  0
-24.128565 -11.405114 -27.408693  25  25  32
-34.516707 11.216030 -23.844713  129  40  0
-24.372364 12.448172 -22.353948  70  37  27
-38.534689 -7.574554 -22.573018  193  91  35
-27.119810 3.074080 -23.445782  136  139  138
-29.138694 12.637908 -21.449567  109  56  11
-48.928904 7.357957 -23.907677  55  30  26
-27.423180 -10.025158 -26.553487  20  26  29
-35.559277 -9.354802 -28.353503  166  114  144
-39.987068 10.050847 -22.007706  135  51  19
-48.030210 -10.386834 -23.087953  228  133  41
-40.780935 16.466970 -17.758965  179  163  141
-26.012237 -2.482775 -21.558065  145  147  154
-22.795892 -12.136731 -27.576023  24  24  23
-36.607721 -5.434461 -22.764262  164  63  10
-16.380960 4.024676 -29.699167  64  39  28
-37.659724 -2.885004 -22.130991  184  80  18
-35.059029 12.179207 -22.074197  110  62  29
-46.853796 7.907867 -23.895868  182  73  14
-47.764449 -12.764619 -22.569527  218  106  43
-36.387239 9.569264 -22.805314  161  152  143
-38.317523 13.436927 -21.433244  122  70  29
-7.869622 11.611414 -25.524457  102  101  117
-50.025335 0.199801 -23.795487  5  6  1
-21.497435 14.289782 -22.599877  106  79  77
-6.208170 5.911906 -25.651848  162  181  187
-37.445673 -9.700096 -22.009593  193  81  19
-10.083370 11.200120 -24.840296  46  36  47
-12.735173 4.925233 -25.847967  48  48  50
-20.743124 12.706100 -22.114022  131  127  118
-35.637005 -9.230642 -23.030285  78  40  23
-42.209515 -3.088202 -21.709286  221  101  61
-28.425390 12.367269 -21.765744  100  56  13
-42.837115 3.590732 -22.667685  214  216  221
-9.412365 12.694759 -22.289141  57  48  44
-39.228214 5.177164 -22.177702  231  114  40
-28.134495 -0.518486 -26.919867  147  148  157
-11.875720 11.840117 -22.490413  64  48  48
-45.790138 14.112142 -19.575485  161  137  112
-42.446223 12.380889 -20.389956  118  60  12
-26.309235 -8.923580 -26.337845  145  150  159
-51.570786 9.421498 -24.426621  34  38  40
-39.575088 3.096027 -22.127306  229  110  44
-39.447806 -2.462123 -21.792632  162  123  112
-33.759073 12.849579 -22.645801  112  69  25
-31.527764 15.884357 -18.686888  51  47  51
-32.381348 13.942483 -20.221390  103  70  42
-22.384282 -0.776194 -21.714605  114  112  88
-28.725652 -14.102634 -27.932008  140  149  150
-43.329168 -15.470712 -22.768990  173  178  183
-38.184979 -17.902507 -25.898127  184  191  193
-56.890378 2.372501 -28.397434  15  7  9
-21.438255 -9.353076 -28.093206  137  140  143
-43.186561 -5.870564 -22.258194  222  224  229
-34.585258 -14.371354 -22.524441  213  206  215
-37.244831 11.393820 -23.415729  145  54  0
-38.806163 12.905901 -19.663267  154  109  63
-15.796915 -12.668291 -30.723501  142  144  151
-26.098994 13.840630 -19.455970  249  247  78
-42.325561 15.385957 -17.847547  174  159  134
-32.679353 -1.695955 -23.689693  181  182  191
-12.851938 12.247126 -21.912244  63  45  37
-31.157343 13.792719 -21.602457  102  67  26
-29.569085 8.015202 -25.763139  90  56  34
-36.268709 5.213847 -23.327768  177  67  0
-44.548411 13.293613 -19.793774  183  172  140
-11.104480 -0.174135 -26.204298  181  177  182
-37.654012 -13.653107 -22.504699  171  69  5
-39.495274 4.107670 -22.235695  234  117  41
-31.630273 2.116302 -24.700065  155  157  162
-25.941468 14.897197 -19.526031  220  213  249
-38.345096 14.871931 -18.863898  202  188  163
-3.054164 -6.742195 -30.232866  205  204  197
-42.002149 -18.992695 -28.738272  29  39  20
-2.879245 -1.331177 -28.542136  8  60  96
-11.784727 -18.648676 -30.831271  223  232  238
-7.770225 5.044958 -25.018462  57  67  26
-8.798696 5.618071 -25.006079  176  205  167
-19.994420 -22.407707 -31.522069  18  21  26
-3.167230 -2.473699 -29.329118  15  28  36
-2.746230 0.042100 -28.629458  163  167  184
-23.493274 -5.256685 -22.479454  29  32  40
-49.722148 -13.858833 -21.960324  38  41  45
-13.608797 -17.803138 -30.665925  230  235  238
-4.299811 -6.035811 -30.044345  163  144  138
-3.924053 -2.839075 -25.664205  69  70  82
-8.712791 7.105376 -25.175442  184  204  172
-18.094548 -23.496843 -31.531809  80  91  103
-4.578772 11.049633 -23.201606  5  5  8
-3.542310 -22.656187 -29.490943  195  203  206
-4.784175 -7.706598 -30.831847  21  29  40
-48.339230 5.182876 -23.254904  19  15  26
-7.329235 8.554896 -25.398594  181  158  175
-6.533032 7.732769 -26.614761  122  139  147
-10.445024 -1.457675 -26.081499  79  79  79
-45.693682 6.382721 -23.121765  85  21  0
-24.332448 -5.866237 -24.524997  153  157  173
-35.042331 -7.598718 -22.170188  106  79  88
-43.579687 7.764227 -22.525803  205  93  15
-49.665858 6.143828 -22.958859  15  12  10
-16.424568 -8.847559 -30.202970  159  168  179
-7.156119 -20.357393 -30.081357  146  155  160
-11.784828 1.667120 -31.010297  103  100  98
-53.148490 4.675157 -23.967277  20  18  30
-5.692315 -5.804030 -29.900625  198  201  196
-15.426112 3.306372 -30.695194  133  38  0
-21.114102 -3.738994 -23.071456  153  139  133
-31.096600 8.015052 -24.913041  140  80  34
-23.906631 -4.300636 -21.755124  29  30  31
-29.906542 -14.030881 -26.194265  236  243  253
-22.695074 -3.595728 -22.413869  173  163  165
-9.282830 -19.919550 -30.544234  210  215  220
-10.478778 -2.029064 -23.943906  149  176  180
-31.831389 7.273604 -24.806909  88  88  74
-32.851450 5.431534 -23.306427  112  105  102
-11.880840 -16.394269 -30.916963  194  192  196
-7.901437 -6.834777 -28.181003  31  33  39
-46.051125 -7.639803 -21.532227  221  110  37
-5.672596 12.683748 -23.713444  66  67  59
-14.823375 4.757464 -30.042932  29  13  10
-24.754704 12.781869 -20.507713  234  228  80
-41.600433 11.461407 -22.608523  177  68  2
-36.895539 -11.707895 -21.618060  186  92  27
-30.934010 -7.186737 -21.980244  145  90  119
-0.033298 0.605230 -30.636755  123  136  148
-51.547583 6.979595 -23.193988  119  106  109
-48.172310 12.994206 -21.455016  192  165  123
-12.753712 9.851801 -26.015971  68  53  52
-17.980346 -21.506188 -31.501040  136  135  128
-33.237337 8.437986 -24.056056  104  78  61
-8.120321 -1.967910 -25.135333  6  6  0
-24.763843 5.244233 -22.392095  87  67  49
-9.565987 -16.559113 -30.219462  210  209  220
-25.234385 14.631070 -20.161393  213  210  0
-5.286094 10.618297 -22.917197  13  14  21
-15.170830 -20.810554 -31.654955  175  186  191
-41.013158 9.295844 -22.525138  224  89  29
-31.816106 5.235682 -24.563354  121  118  128
-22.493538 -13.022696 -26.808917  92  100  110
-44.235013 12.499303 -19.942594  239  229  213
-28.027057 7.275802 -26.343701  88  82  74
-21.465733 12.013385 -20.702243  79  71  75
-48.270716 -1.087547 -22.165416  9  6  8
-27.846303 -9.618656 -25.558192  134  133  146
-50.480722 4.370782 -23.859416  24  20  24
-4.919320 12.232654 -23.124939  60  56  49
-28.879840 4.399060 -25.543003  113  111  119
-17.839063 -14.721574 -28.715390  144  143  153
-14.016796 -13.408325 -29.937961  155  141  129
-23.618146 -11.381685 -26.527424  16  18  21
-28.578882 6.977166 -26.171576  103  70  51
-32.211818 -1.842045 -23.667525  170  171  178
-10.218072 11.647178 -25.971319  63  49  46
-19.562214 -14.336911 -28.672159  132  137  145
-42.978597 -1.660950 -22.460782  216  141  83
-13.424535 -10.914362 -28.901958  197  195  192
-27.982732 -14.606277 -27.011064  212  220  228
-26.472643 -14.583536 -27.062069  202  210  213
-29.296470 13.409392 -23.379608  133  73  22
-32.991827 11.869836 -23.802105  97  55  12
-11.584973 11.052590 -26.185741  68  54  48
-21.023508 -10.358080 -28.868557  184  186  195
-31.950336 -7.851988 -24.037668  216  189  215
-39.320534 -10.595827 -20.972468  228  125  62
-14.296743 3.105547 -31.550199  94  65  45
-7.521003 13.497139 -24.493535  58  53  37
-23.602064 -8.162518 -25.609591  188  190  196
-35.773329 10.091255 -23.674942  140  78  69
-21.706065 -5.277979 -21.227057  38  44  52
-27.702460 12.646057 -23.661116  114  66  19
-6.478645 5.872999 -25.285976  156  159  147
-46.215850 -11.429698 -21.097403  218  108  39
-42.742354 -8.262672 -21.091346  222  224  229
-37.621698 12.474552 -25.274030  81  19  0
-10.897318 1.214213 -25.723713  182  184  193
-37.194168 -12.787294 -21.362343  175  75  11
-30.544255 9.125028 -24.134284  108  36  0
-30.319265 5.745059 -25.934305  114  27  0
-25.235907 -9.010484 -26.103443  143  144  156
-44.286151 12.265873 -22.841648  106  48  6
-41.471339 8.014621 -22.460614  227  126  82
-8.476327 -6.745478 -29.446364  194  192  196
-37.045986 -9.741946 -21.822361  193  89  24
-4.920210 1.352450 -26.918958  127  131  142
-24.080200 -10.057137 -27.263319  137  141  150
-40.099067 15.166495 -18.927832  196  181  161
-38.156449 14.938431 -19.471793  207  193  168
-12.424452 5.078155 -25.345742  8  15  21
-2.088278 -16.211972 -36.523392  139  127  108
-27.683893 4.076083 -26.303037  113  121  133
-42.668383 -0.360573 -21.891498  222  224  229
-45.112547 13.424238 -18.478920  151  130  98
4.080861 7.099513 -34.224544  81  83  80
-37.108549 6.465478 -23.006742  172  83  38
-19.097839 -11.245204 -28.113801  155  162  169
-25.998988 -2.028494 -21.833693  143  147  156
-46.527270 7.782473 -22.999668  202  98  13
-37.870680 -5.897428 -21.318181  177  89  30
-12.445928 7.952205 -25.849427  53  36  36
-27.947275 -1.000475 -25.097921  150  152  156
-11.713330 -8.977278 -29.784460  196  193  199
-36.569212 -7.792899 -22.154024  190  88  31
-39.336610 3.537433 -21.808771  230  111  43
-3.508031 12.584533 -23.496414  193  200  213
-22.568545 13.346037 -20.893564  98  70  82
-42.808599 14.898314 -19.506865  180  159  136
-9.698367 -12.188425 -32.153728  193  191  184
-9.455639 11.321697 -24.772024  78  61  63
-41.012455 2.229903 -21.941444  216  126  59
-10.511525 -15.786559 -30.897419  91  75  60
-30.840956 2.166576 -24.488285  159  163  169
-38.191949 -2.797588 -21.835205  193  85  19
-35.981906 4.896607 -22.903977  178  67  0
-43.531175 15.358329 -17.384274  147  125  106
-4.240374 9.669045 -23.336815  56  50  52
-33.718805 -7.488279 -22.353303  186  172  188
-33.036407 13.151459 -22.069526  97  57  26
-19.983150 15.365416 -22.024490  58  35  34
-6.466089 -0.335790 -26.029359  197  142  115
-2.686567 -0.646087 -28.764819  35  80  115
-9.474765 5.887234 -24.416081  155  151  158
-24.945131 13.497953 -19.801996  223  233  43
-8.868374 7.118233 -24.490725  199  188  168
-7.890832 7.330869 -24.860795  141  149  124
-8.817447 5.342306 -24.285330  180  205  180
-8.356488 4.851886 -24.438640  176  176  194
-32.882132 15.386977 -19.373121  156  142  113
-9.963158 3.906316 -24.995949  77  81  92
-20.556989 -5.143622 -20.370943  80  86  92
-9.791612 13.697011 -21.333579  99  106  124
-7.148058 5.081293 -24.543137  160  167  128
-7.583264 -0.113038 -25.312525  55  28  47
-43.323442 8.356054 -22.974040  252  197  188
-4.029789 10.664488 -22.798599  11  9  14
-25.754038 -5.246576 -21.034139  165  170  175
-47.023421 11.554793 -18.852865  232  227  219
-12.054356 6.478199 -25.291945  15  9  14
-39.344788 11.862498 -22.222120  144  115  92
-47.855645 9.749825 -23.438918  80  55  44
-12.059275 6.411485 -25.296791  15  9  14
-42.138139 -4.317055 -21.392090  222  218  220
-38.587261 -13.274710 -19.187608  167  172  178
-9.214871 14.194337 -22.811743  87  80  65
-38.442625 9.998201 -22.485030  199  140  113
-39.146618 -6.878801 -21.117689  222  107  43
-29.660219 -8.050336 -25.100078  100  41  57
-43.569688 7.966567 -23.037991  185  86  45
-38.878970 6.740826 -22.313585  164  69  12
