ply
format ascii 1.0
element face 0
property list uint8 int32 vertex_indices
element vertex 1538
property float x
property float y
property float z
end_header
2.333852 -6.044110 -20.652247
2.551547 -1.674955 -21.654008
0.121895 -0.071464 -22.202468
3.776102 -4.407356 -20.258976
2.374705 -2.983482 -21.278501
4.613347 2.163058 -21.149408
5.373782 -2.633535 -21.284048
-7.086730 5.406132 -20.339024
6.377115 -3.012399 -20.199668
-3.891505 0.655078 -21.261735
0.112372 -3.772853 -20.747932
-7.544990 4.401370 -20.288380
-4.292879 -4.514749 -18.745374
-6.766569 2.456794 -19.331400
-3.876675 4.914610 -21.189615
-4.848826 0.797149 -20.911056
1.736536 -5.905148 -20.193714
4.117972 -0.544775 -21.310818
5.473041 -1.271622 -21.716153
-3.588952 -2.255607 -18.445000
-1.838829 -1.192512 -21.988607
-0.284810 -4.376776 -20.938552
-0.369558 -2.301167 -21.664348
6.608681 -1.285788 -20.218780
3.572191 -0.085136 -21.914950
4.653082 -1.131127 -21.577308
5.340416 1.759240 -21.247128
0.833657 4.930041 -21.308091
3.097814 -1.507253 -21.543642
-2.829127 4.854651 -21.363661
1.642812 5.751988 -21.731298
3.182684 -0.941053 -21.671756
3.154221 -4.930545 -20.427830
-5.964614 1.249485 -18.845964
-2.861971 -1.946666 -22.019745
-6.568575 5.766235 -20.656141
-0.393936 0.217932 -22.315135
-5.810498 -2.401369 -18.439953
4.978137 0.509399 -21.344121
3.262217 -3.105134 -20.971160
-6.263285 3.546801 -20.123103
-3.663013 -2.769734 -18.163415
-0.799421 2.344241 -22.174825
5.883125 -5.788728 -20.321337
6.509635 4.225410 -20.994830
7.098343 -3.991037 -21.178819
3.227634 3.273658 -22.998033
-1.039740 -0.969524 -22.117177
5.867158 4.241400 -21.113933
0.279204 4.506702 -21.290648
3.871710 1.441038 -20.873988
2.664466 2.227044 -23.006487
6.445394 -3.226875 -21.135067
1.483293 5.120857 -21.498657
-3.205037 -3.178966 -20.860299
3.737362 4.931676 -22.128578
2.946893 1.468580 -22.612001
2.277179 1.692907 -22.831764
1.693185 -2.530614 -21.623864
-2.040207 0.948754 -22.567748
0.442737 -2.660668 -20.763871
2.207155 -4.693543 -20.866935
-1.015595 -5.826747 -21.257864
-0.289927 4.614983 -21.133191
3.594982 -5.235147 -20.479881
4.511812 -2.429864 -22.390986
-5.953782 -0.195732 -21.070150
-0.456952 0.885393 -22.662130
-2.738974 1.272592 -22.337973
2.496170 0.457332 -23.456011
-5.179730 0.842925 -22.009334
-2.081592 -4.769109 -21.056179
-5.888052 1.396273 -21.531189
3.729829 -2.454225 -21.733745
-2.570403 0.024093 -22.627413
0.962563 0.911437 -22.481339
3.768472 -4.650551 -20.420749
0.090886 -0.063396 -22.016819
-1.282532 1.687466 -22.632940
-7.345103 4.608809 -21.469831
-3.727358 1.214053 -21.838357
-2.686694 -4.984514 -21.299492
0.374961 -5.592571 -19.421813
3.834330 -0.894830 -22.636534
-2.412860 -4.276520 -20.992107
-3.975848 0.658447 -22.254050
1.900209 5.506874 -21.730214
1.628080 -2.586390 -21.500594
3.703307 -0.108809 -22.702395
-3.597016 4.576439 -20.938509
-2.929674 4.807201 -21.364177
2.908565 -5.179821 -21.302961
0.678980 4.862838 -21.075244
-6.257930 3.875250 -20.912524
-2.755628 -2.915726 -21.697874
-1.170329 4.517477 -21.682189
-1.259510 5.649546 -21.963256
-6.715284 5.989845 -21.471753
3.514197 3.124567 -22.876412
-0.034273 3.358412 -24.093921
-5.071578 1.966826 -21.366130
1.200877 5.424226 -21.129960
-0.277033 2.956458 -24.882283
2.107874 3.462788 -24.779382
2.051676 3.419783 -25.018440
-4.853686 4.759401 -20.659997
3.265652 4.607562 -23.189641
0.574940 -1.880642 -21.411120
2.301618 4.798905 -21.933964
-1.881082 5.046095 -22.445671
-2.257403 2.077453 -22.571201
-1.044924 -4.754456 -20.879503
0.254754 1.266180 -22.261568
-0.848306 5.032324 -21.470806
-2.197032 -2.762888 -22.248244
0.464931 5.429990 -21.106895
3.495805 0.667284 -22.814741
1.894231 0.756272 -24.322590
-7.032124 5.348044 -20.133169
-2.877116 -1.969387 -22.256998
-3.163540 -3.090958 -20.324611
1.687288 -2.523449 -21.582036
-2.040599 0.950092 -22.542498
0.447261 -2.664160 -20.808450
2.207384 -4.690852 -20.863248
-1.015442 -5.830829 -21.276378
-0.282941 4.645781 -21.260262
3.580036 -5.216016 -20.413524
4.448862 -2.401644 -22.155284
-5.946166 -0.192502 -21.027292
-0.459376 0.886292 -22.625433
-2.739357 1.274435 -22.325762
2.461180 0.455637 -23.254150
-5.172245 0.843625 -21.955795
-2.083052 -4.775205 -21.088766
-5.933930 1.410613 -21.733652
3.698213 -2.436528 -21.599872
-2.569015 0.026338 -22.575201
0.956490 0.911751 -22.429694
3.759715 -4.639215 -20.380811
0.091401 -0.061066 -22.029621
-1.283683 1.687580 -22.601712
-7.190840 4.498650 -20.921263
-3.729898 1.217525 -21.851812
-2.687774 -4.984426 -21.304165
0.388470 -5.628839 -19.551785
3.789525 -0.884806 -22.446483
-2.415658 -4.284990 -21.040525
-3.972603 0.659806 -22.213492
1.903898 5.515780 -21.755107
1.623982 -2.580468 -21.470203
3.661409 -0.105440 -22.520162
-3.609417 4.605070 -21.053392
-2.937059 4.832442 -21.461832
2.891980 -5.157295 -21.218377
0.691422 4.893841 -21.196643
-6.363909 3.957432 -21.347835
-2.755320 -2.911142 -21.677623
-1.169632 4.538516 -21.769237
-1.259429 5.671883 -22.039178
-6.716240 5.993070 -21.469017
3.491757 3.113147 -22.776716
-0.043687 3.341691 -23.960203
-5.075680 1.971478 -21.382629
1.212701 5.450952 -21.222656
-0.292081 2.925145 -24.603595
2.076385 3.435563 -24.573643
2.014439 3.386938 -24.767262
-4.871821 4.787393 -20.764757
3.237559 4.583156 -23.056846
-4.576978 2.117175 -22.235624
-8.451874 1.859688 -16.163344
-1.456740 -2.856393 -21.587473
-5.285444 -2.643018 -17.485198
-2.052942 -6.361013 -21.950399
-5.815572 -3.695067 -17.508855
-8.298374 2.743004 -21.130786
-9.190792 2.447834 -16.343335
-2.241916 -2.588693 -21.235359
-2.355603 -3.404394 -21.048128
-2.061762 -5.552867 -21.653608
-4.601746 1.377235 -22.405895
-5.500614 -3.360001 -17.757706
-4.955549 -2.315856 -18.031694
-1.382430 -3.565713 -21.503434
-1.335032 -1.515724 -22.204412
-5.004136 -0.373559 -21.013859
-4.995097 0.396349 -22.155217
-8.455430 -1.232747 -16.325468
-8.013484 1.354069 -16.124337
-9.001931 -1.186128 -16.425681
-0.996797 -5.799641 -21.682090
-2.405780 -3.955304 -21.009001
-2.570582 -4.948141 -21.386850
-3.982702 -1.500133 -17.481478
-3.874733 -1.085525 -19.846076
-4.693437 -4.524616 -19.148606
-2.799950 -2.228190 -21.467094
-4.727089 -5.186616 -19.714995
-1.918680 -1.166198 -21.979180
-3.989228 -2.266199 -19.035209
-5.391410 0.980621 -22.213394
-9.611778 2.217902 -15.899590
-7.266369 -0.942413 -16.153176
-9.470668 -1.564769 -16.553042
-6.665251 3.067651 -21.768887
-3.262916 -2.862610 -21.266924
-8.429213 1.127320 -16.157154
-5.351530 -4.642924 -17.841541
-4.408752 -1.656604 -17.083098
-6.824254 -0.079250 -17.170107
-4.472241 -2.592124 -18.869186
-3.973218 -2.916820 -19.106164
-1.048671 -4.747965 -20.839452
-5.976519 1.425380 -22.013347
-7.265702 4.548087 -21.201793
-6.527073 4.106839 -22.223720
-4.570829 2.103202 -22.168586
-8.466168 1.860921 -16.199321
-1.456964 -2.859803 -21.606811
-5.285273 -2.640590 -17.473465
-2.053515 -6.338216 -21.872108
-5.802818 -3.678710 -17.437266
-8.253242 2.723195 -20.982916
-9.206994 2.449720 -16.382466
-2.242889 -2.591638 -21.251648
-2.356468 -3.403843 -21.041680
-2.062193 -5.541971 -21.610994
-4.605458 1.374241 -22.437088
-5.491515 -3.347722 -17.697926
-4.957887 -2.316250 -18.036109
-1.383505 -3.565448 -21.499079
-1.334729 -1.519873 -22.239214
-5.008693 -0.377093 -21.046420
-4.995936 0.392336 -22.160733
-8.319119 -1.197074 -15.970539
-8.979877 -1.182488 -16.371605
-0.998991 -5.790050 -21.646843
-2.406420 -3.952005 -20.990134
-2.570359 -4.943375 -21.365331
-3.987427 -1.501551 -17.502001
-4.686257 -4.508586 -19.083825
-4.718570 -5.167007 -19.642806
-1.919385 -1.169909 -22.011568
-3.992120 -2.268196 -19.049857
-5.392791 0.976298 -22.223229
-9.626898 2.219063 -15.933793
-7.263671 -0.941526 -16.139105
-9.439462 -1.558194 -16.482173
-6.823668 3.172891 -22.550054
-3.262992 -2.862045 -21.254905
-8.437906 1.126668 -16.178469
-5.338357 -4.619063 -17.755701
-4.413194 -1.657370 -17.096892
-6.825894 -0.080393 -17.170563
-4.473113 -2.591489 -18.864170
-3.974188 -2.915890 -19.100522
-9.956781 -1.748720 -12.187302
-6.330752 0.370267 -14.912939
-10.795323 -2.021149 -12.300500
-9.083012 -1.734413 -13.612463
-10.643705 -1.797371 -12.301603
-8.132439 2.400070 -14.864170
-10.495635 -2.462633 -12.122155
-11.316679 -2.142198 -12.488011
-11.261265 -1.694289 -12.431321
-1.844856 0.972515 -22.824781
-2.248343 2.012318 -21.610649
-7.729038 2.443269 -18.485575
-2.329820 -2.567333 -20.907059
-8.539178 2.213612 -14.813726
-3.526399 -5.730334 -23.323275
-8.004908 0.482511 -14.827347
-2.718792 1.257391 -21.229029
-8.036906 3.176668 -13.751524
-1.958305 -3.094855 -21.464863
-3.497560 -0.124751 -20.532909
-10.046382 -0.914171 -12.614797
-8.745576 3.128172 -13.312503
-8.894768 3.067942 -12.716012
-8.789772 -0.763506 -13.763245
-9.547564 -0.731078 -13.247254
-8.443315 -0.424062 -15.002523
-4.811004 -0.464499 -21.426506
-8.522832 -1.357552 -15.189098
-3.896189 1.762824 -23.047246
-9.005823 -1.124764 -13.273424
-10.984480 -1.242622 -12.394671
-7.233157 1.352588 -14.985634
-5.594873 0.002529 -21.569522
-2.505092 0.046954 -21.896175
-7.194712 0.439221 -14.912181
-8.997228 -0.408395 -13.351486
-11.047186 -0.550232 -12.216906
-9.146984 -1.272581 -15.236058
-10.568550 -3.214127 -12.154694
-7.346466 5.808175 -21.916724
-11.055902 -0.043858 -12.263543
-1.911344 0.136781 -22.900318
-10.344908 -3.334932 -12.437006
-5.278819 0.915932 -23.031052
-10.721182 -3.618460 -12.080273
-7.424890 2.039952 -15.168172
-3.924089 0.703468 -22.461392
-3.458991 1.153744 -20.525988
-6.909801 -0.320807 -14.984864
-6.788906 6.089724 -21.874728
-6.719804 -0.760054 -15.993623
-4.412890 -0.068435 -21.007197
-7.050464 -0.538989 -15.113010
-4.534529 0.603733 -22.017415
-2.883455 4.633348 -20.631976
-4.791169 -4.240960 -18.102074
-5.213421 2.126384 -23.145772
-4.932337 5.284597 -22.900299
-8.903750 2.688106 -14.561985
-8.003401 0.014062 -14.953689
-6.987071 -1.153067 -15.201423
-8.128145 2.668131 -20.439579
-8.181167 -1.150140 -15.509692
-6.395240 0.371521 -15.221713
-10.757506 -2.016727 -12.242177
-9.116900 -1.743268 -13.694905
-10.656730 -1.805558 -12.326536
-8.159254 2.408250 -14.943497
-10.544234 -2.480606 -12.207825
-11.202783 -2.109174 -12.314763
-11.175224 -1.675615 -12.300272
-7.703854 2.429656 -18.374755
-2.320525 -2.585410 -21.098808
-8.560222 2.217910 -14.871200
-8.021172 0.481732 -14.876823
-8.094135 3.206634 -13.914982
-3.498813 -0.121337 -20.610774
-9.998924 -0.906911 -12.529105
-8.804797 3.153866 -13.456534
-9.062170 3.149232 -13.095210
-8.796177 -0.765969 -13.780095
-9.602828 -0.737764 -13.365325
-8.516457 -1.355311 -15.171548
-9.009128 -1.126886 -13.282466
-10.923696 -1.234124 -12.299567
-7.193756 1.341599 -14.834899
-7.220960 0.439394 -15.010126
-9.006729 -0.411475 -13.374687
-11.008157 -0.544372 -12.158451
-10.525943 -3.194533 -12.088290
-11.022141 -0.046257 -12.213577
-10.304945 -3.314959 -12.371054
-7.453740 2.049467 -15.269621
-3.460398 1.159946 -20.577668
-6.939514 -0.325526 -15.105680
-6.737927 -0.758291 -16.076786
-4.415126 -0.064193 -21.049764
-7.077839 -0.544506 -15.221577
-2.882012 4.666209 -20.772623
-4.802111 -4.268062 -18.238699
-8.926981 2.693881 -14.620790
-8.137040 0.009063 -15.373871
-8.116331 1.775921 -15.398381
-9.446786 -2.420670 -13.507658
-9.898986 -1.987027 -13.287461
-8.938019 -0.194760 -14.900685
-9.183611 -1.829520 -13.783600
-10.923393 -1.632253 -12.434742
-10.014283 0.496728 -13.051797
-8.078021 -2.275485 -15.466307
-10.524870 0.482076 -12.581824
-11.540228 3.305248 -11.649607
-7.391391 2.463177 -20.320661
-6.730879 1.424636 -16.981936
-9.016886 3.994473 -13.308729
-9.354687 1.532029 -13.515513
-11.227192 3.333505 -11.740854
-7.495693 2.178762 -16.283561
-11.522683 2.699215 -11.585075
-5.937191 -0.128319 -19.089985
-16.649333 0.376800 -15.503068
-12.228761 -2.409469 -11.871638
-10.509837 -0.497011 -12.385289
-8.852503 3.208738 -13.703321
-10.378691 2.442404 -12.170988
-16.619916 -0.226046 -15.530099
-8.941094 -0.784092 -14.226614
-15.905807 -2.720720 -14.768154
-12.797846 -3.119012 -11.989964
-17.925885 -2.341498 -16.361675
-9.424030 2.504542 -13.266725
-16.040816 1.633089 -15.405699
-5.119736 -0.354204 -21.024962
-13.818653 -2.620743 -12.580395
-8.939595 -3.235572 -13.695990
-9.411601 0.461360 -13.601811
-12.164339 -2.921736 -11.804566
-12.564040 -2.012443 -12.029365
-8.144588 2.373846 -14.996617
-7.472855 -1.553357 -16.077445
-11.238285 2.670330 -11.587902
-10.567819 0.021483 -12.447219
-11.510450 -3.028975 -11.549175
-7.768922 1.312872 -15.639625
-5.896930 1.301923 -21.010146
-16.692310 5.216382 -16.406448
-9.898503 -2.521559 -13.205610
-10.993061 -0.189555 -12.306241
-9.229158 -1.196421 -13.804726
-9.112376 -0.276498 -14.291572
-17.543235 4.729902 -17.040919
-16.620946 -2.507423 -15.535298
-8.747428 -2.646991 -14.741041
-11.412931 -0.014743 -12.219474
-11.842213 -1.052250 -12.173429
-9.859443 -3.247943 -12.900925
-11.055093 0.241479 -12.340904
-14.219822 0.389623 -13.931134
-11.072827 -3.217227 -11.817308
-13.789333 -1.791984 -12.726667
-4.932984 -4.604635 -17.431833
-7.781460 0.512957 -15.868278
-11.447213 -0.638724 -12.127002
-13.900697 -0.974463 -13.339335
-12.153045 -1.567523 -12.005171
-9.100376 -3.251181 -13.643522
-10.747953 -3.772825 -12.355480
-11.037129 1.098315 -12.416849
-18.429033 3.717589 -17.126106
-16.108422 -0.383553 -15.231189
-7.317605 -0.512967 -16.409264
-14.768370 2.378896 -14.286713
-10.236906 -2.531675 -12.749614
-9.198079 1.917692 -13.659017
-6.178336 0.940130 -16.049990
-11.804140 -2.611179 -11.926558
-9.246491 0.174804 -13.733209
-15.668528 -1.442200 -14.949960
-9.899806 -3.778146 -12.095212
-15.556290 -4.223258 -14.184524
-6.307087 -0.653735 -16.931163
-6.672206 -0.306958 -15.846909
-12.023760 -1.912670 -11.972683
-6.325911 -0.023471 -15.885830
-16.240359 -1.159378 -15.343366
-17.289531 -4.522230 -15.527437
-12.093160 2.878923 -11.625452
-13.485222 -3.147234 -12.228032
-17.748373 3.005732 -16.181794
-17.565471 -1.411300 -16.253066
-9.129268 -3.447725 -12.500451
-17.606071 -0.183263 -16.249648
-9.114686 -2.181795 -13.779677
-11.569466 -3.416095 -11.583272
-10.963179 -3.604872 -11.547770
-8.128284 1.178331 -15.320196
-9.052451 1.318013 -14.313201
-8.157257 -0.694705 -15.545671
-15.600734 3.792329 -15.469404
-9.566598 0.955568 -13.502809
-17.041421 -3.984081 -15.596614
-10.297001 2.944594 -12.171992
-12.414234 0.076843 -12.274672
-17.720301 2.398435 -16.173228
-11.117303 3.857793 -11.788784
-12.892735 -3.862234 -11.929910
-15.795616 -3.155508 -14.447942
-6.450074 0.375081 -15.602562
-10.762686 -2.023174 -12.249410
-9.168174 -1.766409 -13.837687
-10.741170 -1.833607 -12.493077
-10.856871 -2.620200 -12.829731
-11.352919 -2.166283 -12.581835
-9.386770 3.341007 -13.990682
-9.722660 -0.762655 -13.684765
-7.279108 1.371232 -15.212349
-7.220097 0.437625 -14.999934
-11.027107 -0.540193 -12.192397
-6.662758 -0.723092 -15.588613
-8.303801 -0.000716 -16.054968
-8.126525 1.779305 -15.436899
-9.681393 -2.545759 -14.121869
-9.907465 -1.998440 -13.314540
-8.996864 -0.194609 -15.070584
-9.182242 -1.829200 -13.776390
-10.912610 -1.629807 -12.411639
-10.156784 0.489896 -13.389822
-8.059910 -2.253723 -15.372837
-10.514431 0.480518 -12.557176
-6.591388 1.367481 -16.056877
-9.021293 3.995896 -13.316443
-9.592259 1.583022 -14.147905
-7.480024 2.178849 -16.163586
-16.636515 0.377088 -15.489562
-12.183525 -2.406256 -11.812172
-10.499700 -0.496756 -12.361551
-8.932906 3.255692 -13.940008
-10.365243 2.435724 -12.139578
-16.605115 -0.225040 -15.514130
-8.940443 -0.784423 -14.221381
-15.907414 -2.720759 -14.773089
-12.671563 -3.074892 -11.813455
-17.922269 -2.339940 -16.361994
-9.501822 2.530412 -13.474691
-13.471987 -2.507030 -12.108206
-8.913869 -3.216194 -13.616889
-9.614748 0.461559 -14.142835
-12.153242 -2.917598 -11.786174
-12.537939 -2.005938 -11.989399
-8.149863 2.375801 -15.013860
-7.364693 -1.494616 -15.549315
-11.214708 2.660142 -11.544122
-10.556996 0.020789 -12.422194
-11.499156 -3.024156 -11.528588
-7.660773 1.283030 -15.166494
-16.653712 5.201870 -16.356707
-10.111821 -2.622823 -13.699701
-10.978923 -0.189678 -12.276978
-9.308189 -1.220164 -14.020449
-9.111117 -0.276936 -14.284799
-16.616336 -2.505836 -15.533005
-8.743599 -2.644507 -14.725694
-11.398521 -0.015292 -12.191766
-12.035439 -1.079643 -12.477542
-9.850114 -3.247635 -12.882396
-11.040880 0.240354 -12.311672
-14.195186 0.388914 -13.896427
-11.365618 -3.367772 -12.330779
-13.699814 -1.772430 -12.604059
-7.788348 0.513144 -15.897609
-11.434339 -0.638069 -12.102363
-13.866913 -0.970609 -13.291753
-12.134461 -1.563950 -11.974561
-9.169942 -3.296998 -13.830872
-10.738804 -3.767045 -12.335310
-16.090269 -0.382290 -15.209960
-7.320414 -0.513811 -16.423307
-14.718925 2.368568 -14.218523
-10.229411 -2.528428 -12.730410
-9.199789 1.916984 -13.659910
-6.184661 0.941882 -16.099237
-11.791620 -2.606827 -11.904520
-9.023672 0.176525 -13.123591
-15.657233 -1.440280 -14.937314
-10.189807 -3.977133 -12.711665
-15.550720 -4.220653 -14.180054
-6.677041 -0.308352 -15.875355
-12.004291 -1.907876 -11.940209
-6.330603 -0.024437 -15.917991
-16.234610 -1.158304 -15.338812
-17.296670 -4.524043 -15.540652
-12.495978 3.001569 -12.236673
-13.471550 -3.142404 -12.209415
-17.563442 -1.410257 -16.254796
-9.236980 -3.530633 -12.775590
-9.113264 -2.181230 -13.772214
-11.557615 -3.410307 -11.562031
-10.953113 -3.599103 -11.527390
-8.138855 1.180283 -15.359817
-9.054776 1.317633 -14.317020
-8.158373 -0.695229 -15.548012
-15.564429 3.781274 -15.420287
-9.564275 0.954193 -13.493258
-17.058727 -3.989031 -15.622490
-10.285978 2.937663 -12.145039
-12.386288 0.076407 -12.229899
-17.670621 2.391267 -16.115510
-11.097849 3.845340 -11.750633
-12.875960 -3.854315 -11.905632
-15.795741 -3.155203 -14.450818
-8.060645 1.739955 -15.042032
-8.145868 2.379564 -14.902080
-10.659532 -2.010861 -13.720826
-4.572333 1.616944 -16.080372
-10.881977 -1.725473 -13.696811
-10.223365 -1.710194 -14.205638
-15.662342 3.584987 -12.751315
-9.489970 -2.005949 -14.514095
-13.526394 -0.365643 -12.690763
-11.451563 3.868897 -13.544121
-15.396727 -0.676263 -11.563838
-6.539451 -1.531871 -16.185750
-6.033253 0.479632 -15.891686
-14.405127 -3.461048 -10.080267
-16.249880 0.251558 -11.454711
-11.730715 2.161353 -13.740018
-9.237888 4.148312 -13.996643
-10.903608 2.176450 -14.078675
-6.727398 1.961053 -15.554183
-8.158694 0.462248 -15.294900
-12.057907 3.021884 -13.491273
-12.159394 3.069457 -13.681185
-8.488754 -0.428325 -15.185792
-14.208199 -0.373579 -12.284445
-4.795824 0.744736 -16.274874
-11.177430 -0.615355 -13.784945
-5.812878 -0.050579 -16.156355
-14.967110 -1.813492 -11.113882
-10.931204 4.116306 -13.627421
-5.050884 -1.337086 -16.694138
-8.221189 3.363444 -14.606713
-4.604439 -2.410474 -16.531689
-9.161054 -0.829318 -14.884165
-8.487497 -1.386173 -15.118348
-13.637636 -2.120781 -11.804862
-11.139074 2.721223 -13.850528
-8.487277 -3.308371 -14.899267
-8.121122 -3.300055 -15.599304
-8.510150 2.188953 -14.836360
-5.371913 0.073518 -16.370945
-12.299470 -2.951351 -12.038950
-8.159573 -1.017783 -15.277799
-4.745406 0.226948 -16.423818
-11.819541 -3.294073 -12.137801
-9.168277 -0.232916 -14.879864
-6.425087 -3.417593 -16.254162
-10.207226 4.321654 -13.746783
-14.867814 -1.392599 -11.478219
-12.043273 -0.102470 -13.446743
-8.982831 -1.236603 -14.867757
-13.689300 -1.691076 -11.930982
-13.694274 1.478177 -13.053350
-15.133950 0.659866 -12.383237
-14.687847 -0.548887 -12.066689
-8.441416 -2.013509 -15.035806
-8.920412 2.081916 -14.774591
-7.404101 -3.768404 -16.663893
-15.001954 -0.906193 -11.685194
-12.799952 -0.524595 -12.861344
-8.780287 -2.644773 -14.772945
-4.986004 0.731706 -16.326503
-6.758048 -4.455586 -16.068303
-13.495197 0.357123 -12.922659
-16.106812 1.039197 -11.953171
-12.072603 -0.677858 -13.325564
-11.757116 -0.022388 -13.630901
-13.865871 2.680443 -12.915312
-11.075303 -3.764155 -12.523246
-8.025810 -3.819693 -15.658872
-12.559522 -1.592684 -12.697816
-7.996461 -4.152210 -14.978667
-15.520391 1.131301 -12.349240
-13.392535 -0.838505 -12.565695
-8.176688 -2.724330 -15.419298
-14.300803 -3.074872 -10.623351
-8.398161 -3.675335 -14.675469
-7.046099 -0.367867 -15.579867
-14.164254 2.178003 -13.054571
-14.653933 -1.812161 -11.320032
-7.138320 -0.541497 -15.759555
-5.912841 3.005719 -15.234858
-10.627173 -2.660114 -13.598592
-10.688908 -4.008177 -12.753478
-9.728105 2.008884 -14.538169
-12.157203 -2.315030 -12.558464
-12.886185 -3.582055 -11.239011
-13.650132 -1.178246 -12.246336
-10.547193 2.639993 -14.082444
-6.914627 -2.177078 -16.410551
-6.291932 -1.258222 -16.144941
-7.049490 -1.212538 -15.598793
-11.392023 -3.780650 -12.193539
-5.117881 -1.776852 -16.058346
-6.244410 -0.602128 -16.071069
-15.758837 -0.070208 -11.549642
-6.036478 -3.329060 -16.599579
-13.445858 -3.272034 -11.221062
-8.872168 2.746612 -14.614441
-6.254657 -4.129747 -15.892559
-14.634158 -2.973704 -10.431480
-16.709050 3.586017 -12.252199
-14.225586 -1.126281 -11.969176
-14.647636 -2.320401 -11.056386
-13.138152 -2.960035 -11.556795
-15.188117 -1.954284 -10.820153
-8.566908 0.263800 -15.165817
-5.024868 1.591982 -16.141142
-14.465451 -2.707621 -10.863438
-11.744303 4.314800 -13.396857
-13.982698 -0.661990 -12.357297
-12.917442 -2.596023 -11.872417
-14.171285 -3.392517 -10.425298
-10.112185 0.941330 -14.479423
-12.699030 -1.713132 -12.649821
-14.670189 2.725606 -12.838019
-7.866985 0.870442 -15.300371
-15.966758 -0.336224 -11.296442
-11.773516 0.762823 -13.774650
-6.016353 2.368708 -15.640198
-13.986730 -2.892526 -11.151216
-6.574700 2.788255 -15.586490
-8.862365 1.145699 -14.901425
-13.981694 3.197990 -13.096366
-5.543612 -0.952882 -16.521924
-8.121621 -0.840253 -15.313707
-7.634008 -0.982491 -15.591743
-11.789672 1.659109 -13.725597
-14.970577 -2.476686 -10.545992
-13.976382 -2.360196 -11.483426
-6.447995 0.374849 -15.589700
-9.124664 -1.732560 -13.705256
-10.781847 -2.588402 -12.683004
-10.992643 -2.043964 -11.892220
-9.443559 3.379339 -14.181480
-9.747807 -0.768836 -13.763089
-7.419400 1.447395 -16.099552
-6.610491 -0.693948 -15.132360
-9.591392 -2.510087 -13.892425
-9.727928 -1.934484 -12.848115
-8.893595 -0.187288 -14.699469
-10.168165 0.481062 -13.438760
-8.097751 -2.268588 -15.538614
-6.529378 1.315589 -15.438558
-9.816639 1.652386 -14.842114
-7.440769 2.151187 -15.895634
-12.112871 -2.378084 -11.700667
-8.828723 3.173924 -13.593702
-12.646491 -3.063995 -11.771495
-9.453994 2.499389 -13.347798
-13.568524 -2.519376 -12.228330
-8.893675 -3.198900 -13.547363
-9.812923 0.475435 -14.754481
-7.241553 -1.427487 -14.791034
-7.648093 1.286059 -15.068891
-10.333449 -2.734041 -14.293788
-9.258359 -1.200439 -13.874790
-11.835881 -1.045963 -12.128920
-10.241341 -3.489619 -13.892958
-11.418107 -3.395028 -12.449460
-13.597666 -1.746693 -12.451193
-9.247144 -3.354368 -14.083654
-10.507518 -4.212958 -13.490809
-9.359102 -3.628505 -13.143196
-8.059738 1.739260 -15.035776
-8.148821 2.380993 -14.911959
-10.337104 -1.903170 -12.956546
-4.571729 1.623519 -16.140492
-10.868223 -1.721368 -13.664136
-10.232689 -1.713551 -14.230590
-9.511637 -2.015987 -14.583549
-11.383400 3.828569 -13.401420
-15.255215 -0.665809 -11.403176
-6.547149 -1.541603 -16.275032
-6.033867 0.480211 -15.908066
-16.752714 0.256657 -11.971638
-9.223959 4.133755 -13.947573
-10.634305 2.074134 -13.448847
-6.735608 1.968559 -15.616424
-8.233484 0.464518 -15.631578
-11.500143 2.783821 -12.436389
-12.051837 3.024198 -13.476287
-8.444951 -0.427695 -15.008761
-4.795396 0.749288 -16.374450
-5.816381 -0.051222 -16.228772
-10.884663 4.084035 -13.520408
-5.049056 -1.341983 -16.741319
-8.223903 3.364610 -14.612886
-4.600842 -2.410508 -16.523307
-9.002090 -0.805048 -14.343028
-8.502282 -1.392761 -15.182954
-14.481007 -2.329117 -12.956326
-11.069447 2.691221 -13.694071
-8.319999 -3.158759 -14.239255
-8.161708 -3.344312 -15.800814
-8.507263 2.186804 -14.822118
-5.374670 0.073441 -16.477859
-11.996932 -2.833608 -11.539344
-8.171181 -1.022213 -15.334803
-4.744145 0.228097 -16.519882
-11.821159 -3.292732 -12.137544
-9.164547 -0.233124 -14.867681
-6.436892 -3.450789 -16.402039
-10.183265 4.301015 -13.682190
-15.904664 -1.533217 -12.692242
-11.556813 -0.087787 -12.527253
-8.991157 -1.239776 -14.899575
-13.655550 -1.682975 -11.882348
-13.580370 1.459169 -12.881795
-15.024831 0.652931 -12.248895
-14.601540 -0.543194 -11.957250
-8.520713 -2.050724 -15.368435
-8.914496 2.078464 -14.751152
-7.447635 -3.839098 -16.963302
-16.035126 -0.997141 -12.900207
-12.707353 -0.517596 -12.706940
-8.607285 -2.540302 -14.137578
-4.987069 0.736938 -16.450415
-6.790779 -4.539189 -16.363413
-13.404571 0.353705 -12.783731
-16.753019 1.091566 -12.655743
-11.520445 -0.633319 -12.293697
-11.235159 -0.028485 -12.590103
-13.761198 2.649081 -12.763130
-11.118618 -3.788594 -12.609436
-8.069608 -3.876437 -15.884093
-12.488848 -1.577034 -12.576856
-8.031254 -4.201264 -15.152042
-15.396200 1.117992 -12.202716
-13.313631 -0.829872 -12.445546
-8.211478 -2.755173 -15.586920
-14.297823 -3.070344 -10.616617
-8.406280 -3.684769 -14.717439
-7.044804 -0.367972 -15.576901
-14.058426 2.152730 -12.904005
-14.591135 -1.798438 -11.243380
-7.146290 -0.544272 -15.820336
-5.920916 3.022987 -15.322342
-10.219472 -2.480759 -12.635836
-10.750933 -4.049239 -12.889165
-9.705678 1.999400 -14.469514
-12.119001 -2.301593 -12.488968
-12.925081 -3.596090 -11.291271
-13.595664 -1.169771 -12.167162
-10.255473 2.495247 -13.358831
-6.928206 -2.195578 -16.533978
-6.296469 -1.264507 -16.213256
-7.053710 -1.216016 -15.637100
-11.427531 -3.798961 -12.258006
-5.112711 -1.765542 -15.952228
-6.279940 -0.621161 -16.457131
-15.561684 -0.067606 -11.334212
-6.048063 -3.370966 -16.797319
-13.484162 -3.283621 -11.269256
-9.004518 2.834418 -15.083839
-6.268952 -4.180797 -16.082896
-14.603868 -2.960809 -10.394842
-16.573083 3.543471 -12.111809
-14.611821 -2.309375 -11.012311
-13.136412 -2.956888 -11.551188
-15.086874 -1.932460 -10.708522
-8.566432 0.263345 -15.164836
-5.026815 1.602802 -16.252831
-14.442825 -2.698250 -10.834204
-11.680616 4.274129 -13.270821
-13.911477 -0.655998 -12.257528
-12.881332 -2.582305 -11.815016
-14.194595 -3.396951 -10.448654
-10.085769 0.936473 -14.405463
-12.632984 -1.697715 -12.538964
-14.605609 2.706626 -12.753705
-7.841325 0.872597 -15.175821
-15.748861 -0.327984 -11.067398
-11.700615 0.754931 -13.626562
-6.023924 2.381328 -15.725442
-13.998798 -2.893578 -11.163474
-8.717633 1.109038 -14.371771
-13.914766 3.173403 -13.000131
-5.547798 -0.961528 -16.653391
-8.131679 -0.843644 -15.364075
-7.646220 -0.987947 -15.665241
-11.705198 1.639163 -13.555178
-14.899244 -2.455949 -10.466395
-13.971609 -2.356772 -11.474880
-9.948220 4.149519 -12.969485
-10.397169 4.025828 -12.339350
-16.791151 -0.834054 -11.489957
-8.430410 2.593359 -15.952808
-9.214743 -1.780548 -13.947231
-10.652119 -1.681139 -12.687431
-16.769738 -0.310409 -11.621471
-9.845813 -1.597256 -13.428265
-9.212178 4.409913 -13.939268
-11.151601 -2.098175 -12.212609
-10.985994 -1.673162 -12.543686
-16.580413 0.327318 -13.603873
-16.573291 -0.280394 -13.326718
-11.149553 3.188728 -11.493698
-16.885959 0.659409 -11.416060
-7.715334 2.400528 -16.829475
-9.476799 1.556718 -13.816171
-15.233260 0.339170 -13.757007
-10.674406 3.367812 -11.878571
-9.121966 3.790856 -13.727036
-16.616568 0.778927 -13.566242
-11.254605 3.158311 -11.419922
-16.264878 -0.711519 -12.496989
-10.306105 -0.978762 -13.223774
-11.506965 2.581687 -11.426790
-16.006810 0.810662 -13.793087
-12.175432 -2.437136 -11.858579
-12.551723 -3.207166 -11.557251
-10.784550 2.466267 -12.121796
-9.866540 -0.756425 -13.398202
-14.658640 1.451360 -13.720606
-6.319434 0.415232 -16.505302
-15.798251 -1.858394 -13.777679
-11.060768 -1.296403 -12.544921
-16.071909 -0.605832 -13.502931
-9.436193 3.869066 -13.390353
-10.488332 2.489611 -12.577283
-8.859701 -3.285323 -14.340600
-6.229992 -0.216339 -17.036394
-15.906298 0.290641 -13.897329
-7.417605 1.481895 -16.719259
-11.545008 -3.135123 -11.701268
-15.727271 1.046009 -13.905906
-11.076842 -0.266896 -12.406336
-9.949440 -2.498064 -13.183670
-14.617932 1.390383 -13.690574
-9.189703 -0.406981 -13.865096
-7.389722 0.478320 -16.530686
-10.680640 -0.530344 -12.650313
-8.874684 2.054688 -14.810952
-11.101614 -0.578195 -12.281993
-15.019526 -2.216843 -13.580427
-9.014564 -2.162985 -14.080116
-11.982425 -3.335471 -11.665931
-13.878184 2.651749 -13.031277
-13.766898 0.455819 -13.216164
-6.860417 -0.033783 -15.680656
-16.911854 0.095050 -11.710950
-8.149646 -2.661795 -15.199571
-16.453222 1.203129 -13.689701
-16.794655 -2.254944 -11.760825
-6.949859 1.324912 -15.885744
-9.249677 -3.283326 -13.740405
-7.078854 -0.682970 -15.543081
-12.004275 -1.512446 -11.783093
-16.536243 -3.202075 -11.589229
-10.887135 -3.803176 -12.487973
-13.458669 -1.062429 -12.563158
-16.476341 0.032531 -12.396563
-16.318997 -3.845172 -11.535493
-11.022321 1.067246 -12.272929
-14.839445 -0.303325 -13.583655
-13.897786 -3.603959 -12.365726
-6.240798 1.133461 -16.690655
-16.722152 1.218508 -13.294468
-11.734768 -2.604888 -11.709156
-6.511491 -1.596802 -16.259186
-14.638807 -1.479186 -13.695833
-14.948684 -0.992022 -13.613847
-11.786052 -1.925297 -11.832285
-8.984285 0.651918 -14.359228
-14.650374 -3.660310 -12.663440
-15.600115 -3.598253 -12.799415
-12.785396 -3.663973 -11.512936
-8.143556 -0.743431 -15.445245
-7.065940 -0.212905 -15.871039
-8.770256 -1.270008 -14.574335
-10.055730 -3.483227 -12.489708
-16.713754 -2.086145 -12.439587
-15.464323 -4.133767 -13.117673
-12.566515 -1.616616 -11.767076
-16.592765 -0.739580 -12.034092
-15.438427 -2.834571 -13.427182
-8.183961 -0.007832 -15.438544
-9.639769 1.031405 -13.650837
-12.368720 0.030937 -12.286596
-9.379271 -3.612318 -13.147942
-11.441713 -3.616552 -11.653915
-15.752082 -3.469574 -12.213474
-11.152438 -3.673600 -12.134075
-13.209607 -3.055830 -11.779191
-15.697203 -3.392764 -13.557205
-8.839107 3.945105 -14.202946
-8.515886 1.764470 -15.282043
-6.910004 0.372175 -15.417544
-16.142748 -3.308265 -11.870681
-16.272375 -2.658023 -13.054729
-7.995260 -1.847699 -15.546319
-7.029854 -0.209727 -15.449035
-13.407862 -2.083409 -12.093135
-7.456092 -2.245355 -15.907130
-14.396781 -2.913763 -12.869097
-6.656313 -0.977514 -16.340996
-10.286468 -3.978837 -12.262953
-16.118179 -2.750610 -11.641181
-15.949721 -2.891420 -12.079952
-15.873559 -3.121695 -12.674362
-16.407785 -2.043226 -12.815784
-10.710300 -2.558291 -12.509811
-9.369009 3.311317 -13.923584
-9.442576 -2.427167 -13.396259
-9.689165 -1.926945 -12.745008
-8.786917 -0.177914 -14.244857
-10.091580 0.461347 -13.243796
-6.522662 1.311628 -15.447013
-8.754874 3.107945 -13.311869
-9.358661 2.428852 -13.059624
-14.145734 -2.669345 -13.104424
-7.683671 1.309575 -15.352315
-9.216766 -1.188253 -13.730646
-11.674412 -1.018396 -11.801621
-14.075718 -1.834843 -13.182923
-10.189596 -1.859086 -12.566311
-17.333578 0.272334 -12.609065
-10.436279 1.987900 -12.941538
-11.327886 2.698629 -12.078645
-8.372442 -0.435355 -14.659042
-8.909132 -0.791324 -13.974246
-11.996451 -2.838371 -11.537943
-16.625100 -1.625796 -13.592560
-11.525314 -0.089937 -12.464126
-8.521253 -2.048025 -15.376402
-16.729694 -1.050335 -13.770972
-8.535285 -2.481413 -13.809622
-17.232249 1.142839 -13.208177
-11.406396 -0.632200 -12.060256
-8.336315 -3.602757 -14.399489
-10.252554 -2.503134 -12.705108
-7.816937 0.868275 -15.035763
-8.643295 1.084474 -14.052840
-10.423499 4.054025 -12.418627
-17.173156 -0.869523 -11.877855
-8.337113 2.508289 -15.483260
-9.191958 -1.772220 -13.873733
-10.675859 -1.688081 -12.751760
-17.162566 -0.331802 -12.026095
-9.838482 -1.595412 -13.413940
-11.192162 -2.112021 -12.305019
-11.020070 -1.682420 -12.626543
-16.907251 0.321924 -13.997695
-16.624710 -0.283007 -13.380564
-11.235037 3.243296 -11.680462
-17.238207 0.684851 -11.771938
-9.429950 1.537057 -13.669811
-10.799801 3.446388 -12.175462
-9.100719 3.774986 -13.662210
-16.645214 0.779441 -13.593581
-11.347070 3.215387 -11.616309
-16.374947 -0.718476 -12.619666
-10.205529 -0.952942 -12.964823
-11.610662 2.632120 -11.635848
-16.032258 0.810941 -13.819473
-12.243115 -2.460287 -11.981005
-12.616776 -3.235734 -11.664455
-10.835918 2.495584 -12.250499
-9.863292 -0.755343 -13.396903
-14.565166 1.431853 -13.577171
-15.812564 -1.863649 -13.786244
-10.900497 -1.254521 -12.199027
-16.118582 -0.610072 -13.554521
-9.422790 3.862267 -13.359202
-10.518343 2.509432 -12.663393
-8.732932 -3.172604 -13.843499
-15.926635 0.289199 -13.916603
-11.551919 -3.139212 -11.718955
-11.123705 -0.266343 -12.517000
-9.883671 -2.460028 -13.005106
-14.669660 1.397550 -13.765321
-9.158284 -0.401564 -13.763110
-10.708988 -0.531084 -12.726358
-8.849765 2.041469 -14.714284
-11.107168 -0.576703 -12.302318
-15.033613 -2.222482 -13.591282
-9.006270 -2.168739 -14.052884
-12.029933 -3.359482 -11.753085
-13.958916 2.678460 -13.159091
-6.832936 -0.034940 -15.428891
-17.082682 0.098293 -11.884137
-8.186812 -2.700718 -15.399082
-16.915998 -2.278439 -11.880141
-9.225054 -3.257751 -13.666176
-7.049867 -0.674969 -15.311407
-12.091339 -1.529831 -11.945256
-16.472682 -3.184323 -11.512550
-10.894818 -3.811092 -12.509140
-13.551078 -1.073559 -12.708698
-16.589422 0.033483 -12.520089
-16.451139 -3.891644 -11.668651
-11.076763 1.081814 -12.402273
-14.846898 -0.315575 -13.587534
-13.963262 -3.632690 -12.457121
-16.761963 1.221913 -13.335198
-11.799078 -2.630074 -11.833612
-14.668034 -1.485795 -13.732331
-15.291755 -1.038326 -14.099931
-11.861042 -1.945890 -11.977697
-8.964615 0.649313 -14.291106
-14.498766 -3.605600 -12.445262
-15.665762 -3.623268 -12.872996
-12.848483 -3.695192 -11.611959
-8.116649 -0.739094 -15.306924
-8.746765 -1.263512 -14.483894
-10.042448 -3.476514 -12.461642
-16.788982 -2.100678 -12.514104
-15.516869 -4.158101 -13.175945
-12.684341 -1.640595 -11.966901
-16.739140 -0.748215 -12.188918
-15.467540 -2.845303 -13.456275
-8.147044 -0.007076 -15.249988
-9.656730 1.041244 -13.714259
-12.451275 0.033934 -12.438203
-9.349009 -3.590423 -13.058145
-11.473685 -3.636390 -11.719692
-15.840865 -3.500141 -12.311018
-11.171524 -3.687432 -12.178151
-15.731500 -3.407116 -13.591237
-8.809734 3.916716 -14.094911
-8.488095 1.749241 -15.155433
-6.881255 0.365312 -15.167415
-16.294580 -3.350428 -12.033597
-16.313874 -2.670151 -13.094282
-7.967584 -1.833471 -15.395707
-7.000644 -0.207993 -15.211019
-13.506634 -2.107945 -12.243786
-14.452738 -2.933169 -12.943590
-10.274030 -3.972525 -12.238026
-16.237407 -2.780608 -11.765638
-16.040225 -2.916504 -12.176977
-15.940132 -3.142965 -12.746386
-10.010413 4.247156 -13.271262
-17.977900 -1.043747 -11.188311
-10.818706 -2.017899 -12.271725
-10.561147 4.131148 -12.776239
-17.863233 0.094235 -11.624363
-9.764969 -1.757401 -13.098412
-9.025067 -1.659538 -13.351786
-10.736442 -1.810532 -12.427393
-9.839068 -1.609713 -13.048361
-9.571788 4.230901 -13.945278
-10.680575 -2.510608 -12.418040
-11.095178 -1.612547 -12.035633
-18.238560 -0.420890 -11.125958
-17.686003 -1.029819 -11.678890
-17.921670 -0.755115 -11.695856
-12.005861 -2.178538 -11.390135
-15.497479 -3.771903 -11.236830
-17.993969 0.620071 -10.984735
-17.245863 0.219236 -12.167970
-9.168380 3.870909 -14.178363
-15.120516 1.019386 -14.522880
-17.513163 0.785155 -14.729909
-8.773835 -0.750621 -14.119247
-17.479561 0.638440 -11.033299
-16.444721 0.499150 -14.623899
-15.805075 -0.575170 -14.415744
-16.202756 -1.935442 -14.281799
-15.706852 1.024647 -14.506900
-8.171634 -0.982951 -15.296393
-8.079513 -1.367067 -15.383977
-16.542571 -0.637664 -14.423543
-18.127852 -1.634760 -11.649117
-10.625244 2.310807 -12.738943
-9.638027 -0.854939 -13.324809
-14.412354 1.474491 -14.206705
-11.943098 -2.802129 -11.439403
-8.423431 -2.102191 -14.725400
-8.077331 -3.193794 -15.259373
-15.722036 1.847385 -14.576528
-8.800092 -1.057062 -14.074113
-10.994474 -0.163835 -12.190854
-10.528413 -2.204262 -12.582062
-11.911247 -3.266720 -11.334091
-15.265579 -1.926344 -13.910895
-17.319323 -2.496705 -10.466986
-9.352375 1.906134 -13.876551
-17.052584 3.382869 -15.483348
-12.256119 -0.515813 -12.110802
-8.491129 -1.450148 -14.602409
-14.449018 2.405534 -14.222201
-13.231366 -0.889856 -12.463718
-10.780678 -3.296498 -12.521747
-17.161992 -2.259838 -11.445898
-16.466909 -0.642359 -14.468349
-11.272606 -0.614176 -11.828501
-18.123378 1.070619 -13.773198
-16.475536 -3.296163 -10.197476
-11.841577 -1.412600 -11.465221
-16.082332 -1.437392 -14.494669
-16.326480 -2.894582 -10.566007
-16.938972 -1.689399 -14.380839
-15.485134 2.384543 -14.583992
-17.292653 -2.206219 -12.585139
-17.126040 -0.194210 -12.732842
-11.611752 -2.533366 -11.542801
-16.422484 -3.639779 -11.067299
-15.002723 -3.848127 -12.114274
-16.815148 -2.783229 -10.453430
-12.665231 -2.360307 -11.206141
-11.892403 -3.604551 -11.236778
-8.931123 3.215908 -14.111220
-11.551099 -1.904287 -11.646804
-11.429195 -3.597331 -11.393904
-16.493290 -2.776271 -13.454301
-16.503083 3.381311 -15.438693
-9.327558 -3.694659 -12.751145
-15.895876 -3.709112 -11.123017
-14.282894 -1.173205 -13.482221
-15.160682 -3.296921 -13.156582
-16.556147 2.672194 -14.788677
-20.962973 4.667372 -15.193274
-13.857984 -3.553128 -12.384702
-8.150266 -0.815419 -15.296882
-16.758724 -2.503479 -12.746083
-16.076383 -2.663413 -11.472677
-16.930189 -4.015450 -10.531509
-12.012545 -0.114068 -11.864847
-14.734638 -2.964130 -13.162552
-9.976422 -3.383168 -12.241269
-15.254917 -3.381637 -11.890909
-10.776332 -3.858305 -12.077361
-16.837096 0.172627 -13.061425
-11.127694 -3.611507 -11.707075
-15.656011 -2.853707 -11.780109
-10.100264 3.109339 -12.975130
-10.635195 3.060761 -12.772871
-13.128076 0.237340 -12.812779
-17.282360 -3.844239 -10.395790
-16.213404 -2.466017 -14.254838
-16.877403 -2.411154 -10.631059
-19.345602 4.316986 -14.815794
-8.721814 -3.515866 -13.674689
-16.886930 -2.295467 -14.261461
-15.503264 -3.017448 -12.381833
-8.089568 0.966179 -15.500556
-9.349675 3.295547 -13.857351
-9.420209 -2.409051 -13.315950
-8.752760 -0.173291 -14.076915
-10.032409 0.461839 -13.046462
-9.226504 -1.189607 -13.786019
-11.714514 -1.029867 -11.892122
-10.213783 -1.868217 -12.641612
-10.366809 1.955854 -12.729099
-8.345892 -0.439279 -14.496411
-8.290678 -3.532326 -14.113171
-10.404634 -2.603035 -13.203463
-17.694043 -0.921147 -12.460511
-8.269472 2.435579 -15.024670
-17.621301 -0.360707 -12.546304
-17.322307 0.320158 -14.556191
-17.465218 0.697404 -12.021292
-9.390281 1.511945 -13.511732
-10.859393 3.484823 -12.346642
-10.204127 -0.954904 -12.948623
-14.459521 1.401970 -13.391230
-10.757742 -1.211504 -11.818377
-8.712458 -3.139997 -13.726127
-11.560556 -3.142252 -11.740868
-9.912605 -2.470356 -13.104636
-9.182556 -0.412473 -13.871677
-11.054523 -0.562039 -12.175650
-9.183558 -3.202825 -13.513378
-16.331270 -3.134619 -11.339711
-14.882669 -0.320710 -13.641201
-15.707572 -1.090478 -14.767854
-14.338171 -3.530921 -12.189508
-8.111506 -0.003402 -15.009936
-9.551717 1.012753 -13.329850
-16.389750 -3.375276 -12.148948
-9.993859 4.236976 -13.228394
-18.099127 -1.052840 -11.302758
-10.836555 -2.026892 -12.324734
-10.558548 4.135237 -12.780421
-17.935804 0.087219 -11.693682
-9.762335 -1.757845 -13.097673
-9.055913 -1.671982 -13.501612
-10.703946 -1.796766 -12.347685
-9.809113 -1.588967 -12.958327
-9.541352 4.202812 -13.837930
-10.678244 -2.511211 -12.417750
-11.122309 -1.622266 -12.108029
-18.278929 -0.424544 -11.159092
-17.791343 -1.037678 -11.784861
-18.042924 -0.761306 -11.816286
-12.051097 -2.196185 -11.483166
-15.536338 -3.787381 -11.280810
-18.159029 0.630553 -11.140668
-17.351228 0.223013 -12.284031
-9.134484 3.837515 -14.039348
-15.110985 1.020345 -14.504426
-17.531970 0.788528 -14.749777
-8.755000 -0.746227 -14.034656
-17.637145 0.649044 -11.190049
-16.446664 0.501178 -14.622313
-15.799364 -0.573315 -14.402611
-16.387808 -1.965273 -14.545717
-15.707940 1.026788 -14.505378
-8.140815 -0.969937 -15.089936
-8.050849 -1.349917 -15.182945
-16.547882 -0.636397 -14.426035
-18.257273 -1.649079 -11.774444
-10.632401 2.317763 -12.769401
-9.631798 -0.854146 -13.311297
-14.420956 1.478014 -14.220915
-11.979483 -2.813348 -11.518054
-8.398119 -2.082816 -14.580430
-8.052479 -3.159818 -15.084965
-15.721918 1.849752 -14.573589
-8.781945 -1.051359 -13.993697
-10.537259 -2.210294 -12.613593
-17.397155 -2.512893 -10.537592
-17.043796 3.383143 -15.466807
-12.301608 -0.519434 -12.206393
-8.467580 -1.438171 -14.474614
-14.461401 2.411569 -14.243645
-13.214252 -0.878823 -12.436569
-10.755542 -3.274911 -12.462131
-17.227237 -2.271974 -11.511022
-11.311268 -0.618970 -11.925382
-18.194704 1.079084 -13.853033
-16.543568 -3.317249 -10.262541
-11.891816 -1.425130 -11.572826
-16.066348 -1.433709 -14.465350
-16.935374 -1.687362 -14.369723
-15.478608 2.385594 -14.571340
-17.332220 -2.212684 -12.625518
-17.207055 -0.194035 -12.825900
-11.646778 -2.550819 -11.621796
-16.462546 -3.653358 -11.106647
-15.023370 -3.857029 -12.139187
-16.886484 -2.800895 -10.521208
-12.718727 -2.380287 -11.302182
-11.927234 -3.628066 -11.308516
-8.901330 3.190223 -13.982120
-11.587494 -1.917979 -11.730961
-11.459415 -3.619887 -11.463472
-16.489515 3.379922 -15.414776
-9.325521 -3.696645 -12.752134
-15.936890 -3.724342 -11.166719
-14.300750 -1.175019 -13.510499
-15.160814 -3.296530 -13.152062
-16.553019 2.674240 -14.780772
-21.044155 4.696072 -15.273320
-13.875666 -3.561605 -12.411331
-8.120012 -0.804648 -15.093029
-16.123981 -2.675370 -11.525241
-16.977761 -4.032549 -10.573748
-14.734670 -2.963758 -13.158610
-9.985186 -3.394036 -12.276578
-15.285459 -3.392677 -11.928016
-10.789382 -3.871788 -12.115798
-16.904219 0.175398 -13.142311
-11.150528 -3.630245 -11.765236
-15.693620 -2.864371 -11.824118
-10.090700 3.107315 -12.956208
-10.637056 3.066562 -12.788654
-12.898994 0.234309 -12.388860
-17.336745 -3.862231 -10.442348
-15.948574 -2.402549 -13.864587
-16.951724 -2.426762 -10.702842
-19.414386 4.342496 -14.890849
-8.707658 -3.502026 -13.612446
-16.873752 -2.291282 -14.236908
-15.526145 -3.024260 -12.408666
-8.054151 0.952752 -15.252204
-9.382108 -1.698659 -13.467946
-9.783638 -1.923789 -12.916180
-18.946339 -1.049923 -10.781407
-19.747597 -0.910509 -10.442090
-13.885841 -0.285291 -13.339792
-18.289942 0.915930 -10.803264
-18.430034 1.516736 -10.714338
-10.583474 -2.024281 -12.406885
-12.205614 -1.942386 -11.313713
-18.773427 0.652731 -10.688590
-11.538342 3.185631 -11.439912
-10.940154 1.850887 -11.995193
-9.769450 -0.260865 -13.072299
-18.882807 -0.510830 -10.832326
-17.531264 -2.941868 -8.546007
-19.669552 0.674416 -10.600280
-17.548903 0.452677 -12.908126
-15.696627 0.262583 -14.475137
-17.986782 0.594459 -11.005718
-17.568650 0.691240 -12.170574
-9.774416 -0.257081 -13.101314
-11.573721 2.568256 -11.524361
-17.542285 0.676592 -11.207767
-16.457325 0.475854 -14.703067
-11.236000 2.788459 -11.862749
-8.895586 -0.787959 -13.827547
-10.918411 2.375842 -12.220538
-12.177171 -2.358107 -11.891207
-11.223083 2.709832 -11.851970
-15.311818 1.047931 -14.556115
-15.114286 -2.429135 -13.717104
-9.580877 -0.694638 -13.215007
-12.507134 -2.827113 -11.148905
-10.880677 -1.224861 -12.147296
-10.622553 2.471738 -12.712339
-10.514401 0.007590 -12.615374
-9.413891 0.463921 -13.589433
-18.504177 0.142201 -10.981639
-19.396913 -1.397943 -10.630146
-19.070053 -1.873786 -10.809810
-10.091128 0.038098 -12.883349
-11.521144 -3.084790 -11.581766
-14.033038 1.367447 -13.854538
-19.881263 2.726622 -10.186983
-18.529936 -1.222072 -11.044690
-17.331996 -1.138809 -14.651308
-19.741551 1.245533 -10.533299
-17.479601 -1.793745 -14.833387
-12.774565 -2.571256 -11.250302
-11.515245 -0.984551 -11.408667
-13.895230 0.426735 -13.457537
-16.454059 1.076649 -14.776766
-16.770402 -0.676374 -14.470170
-10.545917 -3.396856 -12.955303
-11.135712 -3.191690 -11.817642
-9.945328 -3.273529 -13.127378
-11.008736 -0.005023 -12.009357
-15.484818 -1.038677 -14.416215
-17.173201 1.258872 -14.703538
-14.672665 0.580058 -14.019885
-10.922941 1.053469 -11.870677
-10.293349 -2.461592 -12.611913
-11.990816 -2.269633 -11.427801
-11.223927 -0.646589 -11.549469
-18.333038 1.218996 -14.494722
-17.874844 -2.488263 -12.582894
-19.710280 2.103116 -10.226475
-15.843316 -0.288266 -14.471337
-8.945093 0.498220 -13.542315
-15.011647 -0.236089 -14.169766
-17.611723 -2.363224 -9.436858
-18.188095 1.420669 -15.289613
-17.015357 -3.088363 -8.557073
-11.595401 -2.496865 -11.417895
-9.525198 -3.346076 -13.660729
-18.044884 -2.124012 -9.441145
-9.245986 0.159125 -13.711943
-16.637490 -2.952060 -12.597110
-9.312722 -3.655389 -13.346992
-15.939578 -3.365813 -12.078278
-17.347705 0.132376 -13.357415
-11.531234 -1.875320 -11.499418
-15.717317 -3.392127 -13.618131
-17.907281 -2.317328 -13.363457
-11.255360 -3.446684 -11.431101
-10.754147 -3.827276 -12.186857
-12.863803 -1.589730 -11.500550
-9.153051 -2.183730 -13.865857
-17.604341 -3.309270 -10.518859
-14.984452 -1.383110 -14.033591
-11.399997 -1.464514 -11.564900
-10.110252 -3.490919 -12.705330
-13.678065 -3.694746 -11.625817
-19.575861 2.241056 -10.399151
-14.178588 -3.162627 -12.677035
-13.200251 -3.745533 -11.860595
-14.074085 -1.371163 -13.480926
-18.594340 2.243717 -10.530794
-17.726624 -2.329396 -11.609677
-14.396634 -3.481026 -12.470293
-16.233718 -3.202846 -8.705291
-12.859983 -2.084541 -11.357227
-13.611545 -4.066335 -10.929139
-15.219787 -3.290068 -8.550293
-20.113387 2.280769 -10.248608
-15.501405 -2.836236 -13.520039
-13.629001 -3.556531 -12.240761
-16.347903 -3.234135 -11.778303
-11.086074 -0.962560 -11.875366
-15.530517 -3.724499 -13.036781
-16.293330 -3.105218 -12.904135
-11.082475 -3.769594 -11.647738
-15.530050 -3.934277 -12.357065
-19.070932 -4.752441 -10.037567
-17.418559 -0.817485 -12.961775
-17.316863 -2.816787 -9.153162
-10.020258 0.459946 -13.008374
-9.225454 -1.195720 -13.797179
-10.261695 -1.900692 -12.835883
-17.785768 -0.935425 -12.572231
-17.663068 -0.373954 -12.595604
-9.361800 1.492254 -13.377763
-14.455052 1.399995 -13.385827
-8.741233 -3.194118 -13.956283
-9.971210 -2.519333 -13.374155
-11.027672 -0.556330 -12.098351
-9.149091 -3.153398 -13.320431
-9.446639 0.979158 -12.807119
-17.967364 0.079582 -11.725106
-9.075752 -1.686157 -13.644570
-10.709127 -1.799377 -12.362868
-9.780093 -1.573231 -12.835339
-10.665420 -2.502699 -12.378474
-18.314872 -0.427051 -11.192835
-18.331165 -1.657900 -11.852804
-12.032527 -2.840969 -11.642298
-13.177477 -0.875379 -12.362352
-10.733019 -3.254466 -12.388881
-12.683351 0.223298 -11.922175
-15.686291 -2.327983 -13.440336
-9.365476 -1.691482 -13.389074
-9.773946 -1.921002 -12.878919
-18.960200 -1.045071 -10.792384
-19.777258 -0.908021 -10.464614
-13.863536 -0.284172 -13.297852
-18.301284 0.920231 -10.812991
-18.509877 1.528928 -10.790923
-10.548992 -2.001166 -12.299917
-12.237527 -1.956117 -11.384531
-18.847050 0.658387 -10.756231
-11.538526 3.187188 -11.446942
-10.923865 1.844308 -11.953082
-9.745850 -0.260379 -12.975481
-18.932344 -0.507513 -10.877643
-19.757321 0.681003 -10.674458
-17.574963 0.455593 -12.939715
-15.657057 0.263312 -14.409005
-17.869166 0.707043 -12.526450
-9.753569 -0.256966 -13.016995
-11.572018 2.568179 -11.525967
-17.837633 0.695875 -11.533344
-11.227522 2.784657 -11.846511
-8.874157 -0.782900 -13.701743
-10.900582 2.367151 -12.173841
-12.189238 -2.365532 -11.919758
-11.216219 2.706969 -11.840125
-15.075088 -2.417904 -13.648655
-9.562330 -0.692416 -13.134963
-12.538081 -2.844482 -11.212096
-10.883749 -1.228261 -12.160208
-10.600010 2.459491 -12.645288
-10.498598 0.006243 -12.566547
-9.389733 0.459244 -13.476763
-18.570657 0.144417 -11.045554
-19.103735 -1.877616 -10.837630
-10.070315 0.036631 -12.808055
-11.542472 -3.101185 -11.636465
-14.000452 1.363311 -13.793067
-19.756628 2.699478 -10.079529
-18.564823 -1.225511 -11.076278
-19.526690 1.226188 -10.342871
-12.801993 -2.584968 -11.304360
-11.532537 -0.990429 -11.454539
-13.504477 0.414430 -12.693520
-16.739451 -0.672699 -14.422479
-10.542782 -3.397399 -12.946171
-11.151930 -3.206278 -11.863956
-9.936697 -3.268447 -13.093786
-14.640440 0.579227 -13.962235
-10.920640 1.052092 -11.869653
-10.156805 -2.368546 -12.117711
-12.009356 -2.279951 -11.471039
-11.245715 -0.652233 -11.611877
-17.869293 -2.486119 -12.572902
-19.609107 2.090045 -10.138239
-15.801348 -0.285378 -14.401706
-8.925111 0.493110 -13.433609
-14.970485 -0.233739 -14.096885
-17.648039 -2.370706 -9.467960
-11.613180 -2.508516 -11.462603
-9.509490 -3.331571 -13.586171
-9.221888 0.156613 -13.590951
-16.620602 -2.946764 -12.571574
-9.303175 -3.646244 -13.299703
