ply
format ascii 1.0
element face 0
property list uint8 int32 vertex_indices
element vertex 1840
property float x
property float y
property float z
end_header
13.5353 -8.21506 -23.4716
14.7815 -11.7911 -25.6327
13.4419 -11.111 -23.3097
13.459 -11.2029 -23.3394
19.1469 -19.7003 -33.2028
17.2056 -12.304 -30.0098
17.6314 -12.711 -30.7525
14.3228 -11.4083 -24.9816
14.116 -11.3256 -24.6209
16.4859 -10.8942 -28.9227
18.0965 -13.0168 -31.7483
13.7114 -11.0653 -24.0551
13.6707 -11.1124 -23.9837
13.4608 -11.178 -23.6155
18.7717 -14.134 -33.1265
19.1045 -14.4969 -33.7138
13.7995 -11.202 -24.3521
13.6476 -11.3195 -24.084
13.6068 -11.3657 -24.012
15.8253 -10.3941 -28.0922
15.8376 -10.4959 -28.1141
13.5867 -11.2552 -24.1184
13.5971 -11.3444 -24.1369
18.6605 -19.7647 -33.1252
13.1393 -7.7428 -23.463
15.7579 -10.3176 -28.139
15.6037 -10.3096 -27.8638
15.0023 -10.8052 -26.7898
12.9162 -10.3022 -23.0647
13.5686 -11.2264 -24.2297
13.4068 -11.1723 -23.9407
13.4543 -3.22259 -24.1694
15.8937 -10.4689 -28.5516
15.6468 -10.3999 -28.108
15.4217 -10.3427 -27.7037
14.6111 -10.5865 -26.2475
14.0109 -11.1584 -25.1693
13.2978 -11.0682 -23.8882
13.3322 -11.1767 -23.9501
12.9821 -7.58594 -23.4617
16.8381 -10.8535 -30.4303
16.1355 -10.595 -29.1606
15.8066 -10.4743 -28.5662
15.4369 -10.3222 -27.898
15.4363 -10.4148 -27.8968
15.5048 -10.5545 -28.0208
14.1432 -10.224 -25.5599
14.0058 -10.209 -25.3117
13.9032 -10.3855 -25.1263
13.8685 -10.4432 -25.0636
14.1875 -10.7688 -25.64
14.7122 -11.2557 -26.5883
16.579 -17.7775 -29.9621
16.3763 -10.4213 -29.7751
16.8225 -10.8072 -30.5864
16.1007 -10.6362 -29.2741
14.0244 -10.1995 -25.4988
13.9169 -10.2057 -25.3035
13.8325 -10.3115 -25.15
13.484 -10.7055 -24.5164
13.342 -10.6736 -24.2582
13.4253 -10.8216 -24.4096
16.2566 -10.7056 -29.7376
13.9302 -10.1079 -25.4821
13.9166 -10.1829 -25.4572
13.7628 -10.3221 -25.1759
13.8321 -10.4584 -25.3026
13.4774 -10.6833 -24.6538
13.1933 -10.619 -24.1341
16.1814 -10.7214 -29.7817
13.9164 -10.0745 -25.6131
13.8977 -10.1461 -25.5785
13.8413 -10.3597 -25.4747
13.8412 -10.4446 -25.4746
13.3652 -10.6594 -24.5986
12.6597 -7.42389 -23.4439
16.1737 -10.6827 -29.9514
14.2001 -10.2556 -26.2965
14.1156 -10.2817 -26.1399
13.9282 -10.4031 -25.7929
13.9012 -10.4688 -25.743
13.3673 -10.7268 -24.7543
13.9668 -10.41 -26.0251
13.8518 -10.4103 -25.8108
13.1123 -10.4247 -24.4329
13.0169 -10.4297 -24.255
13.9744 -10.3061 -26.202
13.8668 -10.3134 -26.0002
11.6197 -4.67711 -21.9239
12.9727 -10.3619 -24.4769
13.0182 -10.4801 -24.5627
15.9053 -10.6707 -30.2
14.8546 -10.1538 -28.205
14.6635 -10.116 -27.8421
13.0404 -10.4818 -24.7602
13.0257 -10.5525 -24.7323
14.8195 -10.0999 -28.3175
14.6383 -10.0697 -27.9714
12.8 -10.2726 -24.4585
12.7662 -10.3268 -24.3939
14.7457 -10.2086 -28.3572
12.8353 -10.3669 -24.6832
14.9628 -10.2326 -28.9602
12.8184 -10.172 -24.8098
12.8868 -10.3094 -24.9421
12.9165 -10.4165 -24.9997
12.6257 -10.5893 -24.4367
12.717 -10.7479 -24.6135
14.6473 -6.94319 -28.5337
12.9737 -10.2779 -25.2735
12.8347 -10.2511 -25.0026
12.7947 -10.3022 -24.9247
12.4178 -15.0787 -24.1905
12.2369 -2.95924 -23.9938
13.8322 -6.41886 -27.1219
12.7439 -10.2451 -24.9881
12.709 -10.3001 -24.9196
12.642 -10.3132 -24.9513
12.5678 -10.418 -24.8048
12.5439 -10.4808 -24.7577
13.991 -17.949 -27.6139
12.5623 -10.316 -24.9582
12.4836 -10.3198 -24.9673
14.7913 -19.0315 -29.5826
12.3914 -10.2291 -24.949
15.3411 -19.7684 -30.8881
12.3082 -10.146 -24.9491
12.2224 -10.0606 -24.9436
18.7176 -12.4784 -38.995
11.571 -8.99039 -24.9733
11.2153 -9.27881 -24.2056
10.1651 -13.7744 -22.0979
18.1561 -8.4817 -39.7579
15.5714 -10.9113 -34.0979
10.6609 -8.79328 -23.345
10.6917 -8.89671 -23.4124
11.0217 -9.07672 -24.3127
15.5545 -20.7012 -34.3115
12.4143 -8.18423 -27.5873
12.1531 -9.90253 -27.0069
11.7626 -9.67149 -26.1392
11.5225 -9.55938 -25.6055
12.1454 -11.4257 -26.9898
14.416 -19.1145 -32.0355
14.4057 -19.5278 -32.0128
14.75 -20.1037 -32.7778
13.3471 -4.38262 -29.8815
16.1121 -12.3847 -36.0718
15.2339 -11.937 -34.1058
14.8206 -11.7238 -33.1804
14.3568 -11.464 -32.1421
13.6658 -11.0142 -30.5951
13.338 -10.8496 -29.8612
12.8335 -10.535 -28.7318
12.3588 -10.2375 -27.669
13.6492 -18.2329 -30.558
13.5922 -4.39449 -30.6592
12.529 -5.27538 -28.261
13.1365 -5.62994 -29.6313
15.6721 -7.89497 -35.3506
16.5472 -12.4415 -37.3244
16.7139 -12.6925 -37.7005
16.1713 -12.402 -36.4765
15.7398 -12.1895 -35.5033
15.4422 -12.0751 -34.832
15.0417 -11.875 -33.9287
14.7439 -11.7508 -33.257
14.4018 -11.5864 -32.4854
13.8816 -11.2723 -31.3119
13.5472 -11.1026 -30.5576
13.0788 -10.8171 -29.5012
13.7 -18.4384 -30.9024
15.3513 -12.095 -34.8894
15.022 -11.9493 -34.1409
14.7602 -11.8529 -33.5459
14.5076 -11.7599 -32.9717
13.7808 -18.6876 -31.32
12.5111 -5.34826 -28.6514
12.8379 -5.78194 -29.3997
12.0897 -3.40024 -28.3353
11.7305 -7.7898 -27.4934
11.7279 -7.87967 -27.4872
16.5656 -9.26109 -39.1314
16.5622 -9.38958 -39.1233
11.5434 -7.78722 -27.4843
13.893 -13.7827 -33.0786
10.8206 -3.02976 -25.9694
10.0281 -14.3023 -24.6592
9.70242 -13.9969 -23.8584
10.8035 -10.9821 -26.7855
9.41487 -13.4609 -23.3427
9.34433 -13.5918 -23.1678
9.36088 -13.7293 -23.4022
11.4648 2.23467 -29.1479
10.221 -14.8118 -25.9856
10.9871 -3.00502 -28.1721
11.9209 -8.22134 -30.83
15.2335 -5.03369 -39.7397
11.5863 -7.95925 -30.225
10.8833 -7.76029 -28.3913
10.3079 -7.61892 -26.8903
10.4608 -7.82284 -27.289
10.2362 -10.7703 -26.7032
10.9894 -7.71185 -28.9194
11.143 -7.91742 -29.3238
10.9556 -7.97643 -28.8305
10.8475 -7.99289 -28.546
10.8272 -8.0729 -28.4926
10.9748 -7.57551 -29.1366
11.0978 -7.85686 -29.4632
11.0059 -7.98659 -29.2192
10.9077 -8.01188 -28.9586
10.8044 -8.03161 -28.6843
10.7875 -7.41638 -28.895
10.9539 -8.01986 -29.3409
10.8572 -8.04599 -29.0819
9.49161 -1.96673 -25.653
12.6622 -7.48219 -34.5332
13.0343 -20.2624 -35.5481
11.7977 -6.92709 -32.4707
9.66843 -10.5554 -26.6103
11.5739 -3.00064 -32.1497
9.13485 -2.04894 -25.6117
10.2107 -2.57653 -28.6281
9.48905 -10.4646 -26.6048
12.1605 -18.0113 -34.4164
11.8606 -17.679 -33.5677
13.7183 -5.4873 -39.195
11.731 -17.5406 -33.517
11.4613 -17.2465 -32.7465
11.311 -17.128 -32.317
11.3277 -17.2613 -32.3649
7.65675 -12.3237 -21.8764
11.2384 -17.1818 -32.4185
11.2587 -17.321 -32.477
11.2813 -17.4643 -32.5421
13.5299 -4.33481 -39.4074
11.1741 -17.2493 -32.5458
11.2221 -17.4324 -32.6858
11.2512 -17.5868 -32.7705
13.3748 -4.72053 -39.3377
8.43817 -6.12181 -24.8182
9.70819 -16.4658 -28.5535
11.5793 -2.52223 -34.3941
11.3186 -2.5775 -33.6196
11.2523 -2.6738 -33.4225
7.45545 -10.1128 -22.1449
8.78521 -13.1343 -26.0947
8.79242 -13.2322 -26.1161
9.41179 -14.4438 -27.9558
11.3984 -2.50764 -34.1951
10.7631 -2.58314 -32.2893
10.6267 -2.65667 -31.8801
11.4413 -3.20356 -34.3239
8.49764 -12.9164 -25.4929
9.93197 -3.91259 -30.0969
10.2531 -4.14267 -31.07
7.30657 -10.0373 -22.1411
8.68592 -13.4237 -26.321
9.51247 -15.0854 -28.8257
12.5503 -22.3116 -38.0311
10.5658 -3.01881 -32.3444
12.4941 -22.4384 -38.2472
10.4192 -2.9002 -32.2244
9.41278 -3.68748 -29.1117
9.53109 -3.83209 -29.4776
12.7382 -22.85 -39.3966
12.7609 -23.1538 -39.4668
12.7471 -23.2602 -39.424
10.0483 -2.82607 -31.4008
7.50897 -10.5595 -23.4655
12.5834 -22.8074 -39.3231
12.4942 -23.0362 -39.0444
7.5739 -10.6832 -23.9176
12.4455 -22.795 -39.3017
12.3318 -22.7164 -38.9425
12.3439 -22.9987 -38.9808
12.2009 -22.7145 -38.9391
12.2257 -23.0208 -39.0183
12.307 -23.3048 -39.2777
12.1954 -23.0795 -39.34
12.1965 -23.3438 -39.3435
12.048 -23.0484 -39.287
12.0539 -23.4528 -39.3063
8.68324 -3.05345 -28.6261
7.58651 -11.0046 -25.0105
11.9226 -23.0591 -39.3053
11.9207 -23.1865 -39.2991
11.9205 -23.448 -39.2983
9.69378 -12.2788 -32.3126
11.7955 -23.1979 -39.3184
11.8043 -23.6085 -39.3476
8.19716 -2.67098 -27.6309
8.25513 -2.78263 -27.8263
11.4554 -5.1485 -38.6137
11.6784 -23.2256 -39.3654
11.6765 -23.353 -39.3591
11.6733 -23.6089 -39.3482
8.11791 -2.67522 -27.6747
8.17642 -2.78741 -27.8741
11.3261 -5.01952 -38.6117
11.5416 -23.3455 -39.3464
11.5368 -23.598 -39.33
11.537 -23.7295 -39.3306
7.81981 -6.20192 -26.9649
11.4081 -23.3407 -39.3383
11.402 -23.7215 -39.3174
11.2735 -23.3335 -39.3261
11.2717 -23.4608 -39.3197
11.2634 -23.7056 -39.2911
11.2621 -23.8338 -39.2865
10.2707 -13.7748 -36.2496
11.1375 -23.4543 -39.3088
11.1266 -23.824 -39.2703
10.9965 -23.433 -39.2732
10.9951 -23.5608 -39.2681
10.988 -23.8074 -39.243
10.9848 -23.9311 -39.2313
10.8597 -23.5512 -39.252
10.772 -23.7502 -38.9348
10.7187 -23.5288 -39.2147
10.6429 -23.4922 -38.9373
10.6356 -23.7356 -38.9108
10.5765 -23.5034 -39.1724
10.4211 -23.5439 -38.5966
10.4672 -23.7773 -38.7673
6.70144 -1.75913 -25.1304
10.4186 -23.5721 -39.0698
10.3363 -23.515 -38.761
10.3276 -23.7534 -38.7284
10.1003 -23.5248 -38.3556
10.1297 -23.7215 -38.4674
6.53161 -1.75851 -25.1216
6.53141 -1.84219 -25.1208
10.1018 -23.5708 -38.853
9.99934 -23.7164 -38.459
10.0528 -22.586 -39.1666
9.85669 -23.6817 -38.4027
9.91834 -23.9586 -38.6429
9.79377 -23.5824 -38.6596
9.78408 -23.9452 -38.6214
9.77511 -24.0519 -38.586
9.56449 -23.7199 -38.258
9.54511 -23.7992 -38.1805
7.35462 -1.98773 -29.816
9.38963 -23.3472 -38.0661
9.22859 -23.3209 -37.4132
8.67622 -14.2623 -35.6557
8.85774 -22.6904 -36.4017
7.68322 -2.13423 -32.0134
7.78197 -2.26974 -32.4249
7.69063 -2.34992 -32.0443
8.75032 -22.4835 -36.4597
8.57218 -22.3829 -35.7174
5.56411 -4.8588 -23.5103
5.44937 -4.83536 -23.0255
8.41713 -14.3447 -35.5653
5.48269 -13.282 -23.1663
8.48671 -22.1133 -35.8593
8.44946 -22.1352 -35.7019
8.39636 -22.2326 -35.4776
8.38139 -22.311 -35.4143
8.02757 -0.11468 -34.4039
8.29347 -14.3359 -35.5434
8.2892 -14.4469 -35.5251
8.25884 -21.8269 -35.395
8.26438 -21.9596 -35.4188
8.24132 -22.1338 -35.3199
8.22241 -22.2005 -35.2389
8.16688 -14.44 -35.5082
8.16352 -14.5524 -35.4936
8.0878 -21.8019 -35.1644
8.07183 -22.1098 -35.0949
8.03604 -14.5358 -35.4531
8.03329 -14.6489 -35.441
7.9258 -21.6794 -34.9668
7.95188 -21.8677 -35.0818
7.91054 -14.6404 -35.4203
7.90838 -14.7544 -35.4107
5.31685 -13.5699 -23.8068
7.80524 -21.7848 -34.9489
7.78397 -22.0739 -34.8536
5.04228 -1.68076 -22.9195
7.79113 -14.6379 -35.4142
7.78661 -14.7474 -35.3937
7.7823 -14.8571 -35.3741
7.64184 -21.6519 -34.7356
7.65881 -21.816 -34.8128
4.869 -4.64428 -22.4723
7.66294 -14.7364 -35.3674
7.65861 -14.8459 -35.3474
7.65448 -14.9557 -35.3284
5.30173 -13.9476 -24.4695
7.51982 -21.7496 -34.7069
8.29748 -0 -38.8945
7.53023 -14.9428 -35.298
7.52649 -15.053 -35.2804
7.3814 -21.6829 -34.6003
7.41076 -14.9391 -35.2893
7.40634 -15.0478 -35.2683
7.39818 -15.1486 -35.2294
4.83856 -4.76052 -23.4124
7.28755 -15.0453 -35.2623
7.27838 -15.1437 -35.218
7.27234 -15.2484 -35.1887
7.26894 -15.3586 -35.1723
7.12843 -21.7302 -34.4924
7.15237 -15.2427 -35.1756
7.15185 -15.3589 -35.173
6.97971 -15.239 -34.8985
6.96729 -15.328 -34.8364
6.84389 -15.3117 -34.7994
4.57717 -4.57717 -23.675
6.71441 -15.2811 -34.7297
6.75296 -15.4852 -34.9291
6.75002 -15.5949 -34.9139
4.4569 -4.61328 -23.4574
6.62476 -15.4578 -34.8672
6.62298 -15.5698 -34.8578
6.61931 -15.6773 -34.8385
6.02738 -3.33659 -32.2896
4.32627 -4.48078 -23.1764
4.14559 -5.62615 -22.2085
6.49711 -15.5467 -34.806
6.49537 -15.6585 -34.7966
5.12626 -2.88935 -27.9614
6.37562 -15.6492 -34.7761
6.37633 -15.7669 -34.78
5.96572 -21.1512 -32.5403
6.06686 -21.6201 -33.0919
6.21106 -15.6427 -34.5059
6.20755 -15.7488 -34.4864
5.94245 -21.2388 -33.0136
5.8413 -21.3099 -32.4516
4.35329 -2.21771 -24.6413
3.92102 -5.54862 -22.1945
6.08064 -15.7179 -34.4187
6.06143 -15.897 -34.31
5.70908 -20.8974 -32.3155
4.20512 -16.1857 -23.8026
6.6703 0.25655 -38.4825
6.46013 -4.72087 -37.27
5.94074 -15.6516 -34.2735
5.98778 -15.8907 -34.5449
5.98284 -15.9926 -34.5164
5.15842 -19.6417 -29.7601
4.29228 -16.7564 -24.7632
4.2574 -16.7021 -24.5619
5.86264 -15.9786 -34.4861
5.85745 -16.0793 -34.4556
5.34189 -20.3201 -31.4229
4.89375 -19.0952 -28.7868
4.7078 -18.462 -27.6929
4.36595 -17.2926 -25.6821
4.03625 -4.60133 -24.2175
5.73702 -16.0637 -34.4221
5.73356 -16.1686 -34.4014
3.80912 -13.2557 -22.8547
5.23596 -20.4202 -31.4157
4.58928 -18.3571 -27.5357
4.55543 -18.3128 -27.3326
4.36016 -17.7895 -26.161
4.28739 -17.5783 -25.7243
4.89526 -1.19884 -29.971
5.61641 -16.1615 -34.3862
5.61459 -16.2708 -34.375
5.61125 -16.3757 -34.3546
5.04827 -20.1931 -30.9078
4.38744 -18.087 -26.8619
5.49943 -16.2691 -34.3714
5.49481 -16.37 -34.3426
5.48998 -16.4699 -34.3124
3.79145 -4.51748 -24.2008
5.37761 -16.3617 -34.3251
5.37339 -16.4632 -34.2982
5.36931 -16.5649 -34.2722
4.36965 -18.5943 -27.8914
3.47123 -1.73562 -22.6385
5.25684 -16.4562 -34.2837
5.25302 -16.5584 -34.2588
5.24937 -16.661 -34.235
4.18108 -18.2695 -27.2679
5.05599 0.337066 -33.7066
5.13705 -16.5527 -34.247
5.13336 -16.6549 -34.2224
5.12973 -16.7571 -34.1982
4.94217 0.336966 -33.6966
3.54577 -4.43221 -24.1757
5.01655 -16.6458 -34.2037
5.01263 -16.7468 -34.1771
5.00899 -16.8484 -34.1522
4.82938 0.336933 -33.6933
4.89598 -16.7374 -34.158
4.8921 -16.8379 -34.1309
4.89031 -16.9455 -34.1184
4.77577 -16.8289 -34.1126
4.7734 -16.9342 -34.0957
4.77176 -17.042 -34.084
3.30002 -4.34637 -24.1465
4.65732 -16.9254 -34.0779
4.65489 -17.0301 -34.0602
4.48894 0.448894 -33.667
4.5713 -17.1424 -34.2847
4.57089 -17.2551 -34.2817
4.46231 -17.2771 -34.3255
4.46261 -17.3928 -34.3278
2.93698 -4.01902 -23.1867
4.35835 -17.3187 -34.408
4.31656 -17.2662 -34.0781
4.3222 -17.4026 -34.1227
4.32131 -11.4456 -35.0376
4.31843 -11.5547 -35.0143
4.31747 -11.6689 -35.0066
4.31684 -11.7838 -35.0014
4.2082 -17.5152 -34.1205
3.81294 -15.6754 -31.7745
4.06983 -17.6359 -33.9152
4.06311 -17.7197 -33.8593
3.43681 -4.02598 -29.4584
4.08324 -11.5497 -34.9992
4.08316 -11.6662 -34.9985
4.0835 -11.7838 -35.0014
3.49325 -14.2724 -29.9421
3.49257 -14.3694 -29.9363
3.48858 -14.4527 -29.9022
3.50177 -14.6074 -30.0151
3.95025 -17.8326 -33.8593
3.7918 0.557617 -33.457
3.37928 -14.1135 -29.8172
3.68965 -17.4716 -32.5557
2.68576 -1.70912 -24.416
3.24219 -3.63518 -29.4744
3.31244 -14.1531 -30.1131
3.31076 -14.2463 -30.0978
3.30931 -14.3403 -30.0846
3.30819 -14.4357 -30.0745
3.3077 -14.5338 -30.07
3.32431 -15.2113 -30.221
3.35254 -15.442 -30.4776
3.27283 -2.45463 -30.6828
2.55781 -4.31631 -23.9795
2.55743 -4.39559 -23.9759
2.71102 -9.14969 -25.4158
2.71053 -9.23276 -25.4113
2.71037 -9.31691 -25.4097
3.20551 -14.4248 -30.0516
3.20507 -14.523 -30.0475
3.21628 -14.6743 -30.1526
3.21818 -14.7835 -30.1704
3.21933 -14.8894 -30.1812
3.22167 -15.0009 -30.2031
3.2257 -15.1205 -30.2409
3.22568 -15.2212 -30.2408
2.30794 -2.45684 -22.3349
2.47684 -4.31449 -23.9694
3.10939 -14.8448 -30.0908
3.11237 -14.9594 -30.1197
3.11612 -15.078 -30.156
3.11569 -15.1764 -30.1518
3.11413 -15.2693 -30.1368
3.11359 -15.3671 -30.1315
3.1112 -15.4557 -30.1084
2.88688 -16.1106 -27.9375
3.02509 0.605018 -30.2509
2.37342 -4.27215 -23.7342
3.01548 -15.2784 -30.1548
3.01535 -15.3783 -30.1535
3.01335 -15.4685 -30.1335
3.01059 -15.5547 -30.1059
3.00651 -15.6339 -30.0651
3.00015 -15.7008 -30.0015
2.99639 -15.781 -29.9639
3.01131 -15.9599 -30.1131
3.01306 -16.0696 -30.1306
3.01786 -16.1958 -30.1786
2.6164 -15.0879 -26.164
2.68705 -15.9431 -26.8705
2.69873 -16.1024 -26.9873
2.76833 -16.8868 -27.6833
2.80067 -17.1775 -28.0067
2.29395 -4.2715 -23.7305
2.90796 -15.6428 -30.0823
2.90388 -15.721 -30.0401
2.90261 -15.8142 -30.027
2.90192 -15.9105 -30.0199
2.90245 -16.0135 -30.0253
2.90069 -16.1038 -30.0072
2.3566 -14.0583 -24.3786
2.55251 -15.7551 -26.4053
2.58316 -16.0334 -26.7224
2.59067 -16.1694 -26.8
2.68844 -17.0577 -27.8114
2.72453 -17.3806 -28.1847
2.73932 -17.5694 -28.3378
2.19264 -3.91543 -23.4926
2.22849 -4.05903 -23.8766
2.22781 -4.21692 -23.8694
2.30507 -14.3244 -24.6972
2.38335 -14.981 -25.5359
2.39968 -15.1694 -25.7109
2.39672 -15.2363 -25.6792
2.43709 -15.58 -26.1117
2.46455 -15.8435 -26.4059
2.47898 -16.0249 -26.5605
2.52064 -16.3841 -27.0068
2.58804 -17.0071 -27.7289
2.60421 -17.2064 -27.9022
2.60125 -17.2797 -27.8705
2.14688 -4.21425 -23.8542
2.70687 -14.4367 -30.0764
2.70615 -14.533 -30.0683
2.70515 -14.6278 -30.0572
2.6908 -16.2444 -29.8978
2.6872 -16.3223 -29.8578
2.68409 -16.4028 -29.8232
2.23452 -14.4002 -24.828
2.27012 -14.7137 -25.2235
2.50763 -17.2748 -27.8626
2.5236 -17.4782 -28.04
2.06831 -3.97752 -23.8651
2.06626 -4.13251 -23.8414
2.06568 -4.21081 -23.8347
2.60556 -14.3306 -30.0642
2.60461 -14.4256 -30.0532
2.60379 -14.5212 -30.0438
2.60276 -14.6155 -30.0318
2.60219 -14.7124 -30.0252
2.60136 -14.8077 -30.0157
2.59944 -14.8968 -29.9936
2.5905 -16.2405 -29.8904
2.58275 -16.3905 -29.8009
2.39627 -17.3269 -27.6493
1.98732 -3.97464 -23.8479
1.98609 -4.13107 -23.8331
2.50456 -14.3261 -30.0547
2.50386 -14.4222 -30.0463
2.50014 -14.8008 -30.0017
2.49813 -14.8889 -29.9776
2.4962 -14.9772 -29.9544
2.49458 -15.0673 -29.935
2.49349 -15.1604 -29.9219
2.49167 -15.249 -29.9
2.4873 -16.2172 -29.8476
2.48071 -16.4719 -29.7686
2.2857 -17.1884 -27.4283
1.90751 -3.97398 -23.8439
1.90721 -4.13229 -23.8402
2.40362 -14.4217 -30.0453
2.4026 -14.5157 -30.0325
2.40131 -14.608 -30.0164
2.40043 -14.7026 -30.0054
2.39963 -14.7977 -29.9954
2.39491 -15.068 -29.9364
2.39398 -15.1619 -29.9248
2.39182 -15.2478 -29.8977
2.38247 -16.2802 -29.7809
2.38344 -16.3862 -29.793
2.38466 -16.4939 -29.8083
2.17176 -17.0121 -27.147
1.82951 -4.13628 -23.8632
2.29907 -14.794 -29.9878
2.29734 -14.8828 -29.9653
2.29619 -14.9752 -29.9503
2.29526 -15.0689 -29.9381
2.29414 -15.1613 -29.9236
2.29055 -15.3367 -29.8768
2.29016 -15.4337 -29.8717
2.10524 -17.208 -27.4596
1.751 -3.82036 -23.8773
1.75043 -3.89869 -23.8695
2.20943 -14.763 -30.1286
2.2086 -14.8579 -30.1173
2.19764 -14.884 -29.9678
2.19024 -15.4312 -29.8669
2.03706 -17.4076 -27.7781
2.05079 -17.6182 -27.9653
1.67063 -3.89813 -23.8661
1.67013 -4.05603 -23.859
2.11016 -14.7711 -30.1451
2.09577 -14.9698 -29.9395
2.09574 -15.0694 -29.9392
2.09193 -15.3408 -29.8847
2.09159 -15.438 -29.8799
1.94734 -17.5261 -27.8191
1.48146 -2.14812 -22.2219
1.59119 -3.81884 -23.8678
1.59067 -3.97668 -23.8601
1.59065 -4.05616 -23.8598
2.02213 -14.5593 -30.3319
1.99936 -14.4953 -29.9904
1.99747 -14.7813 -29.962
1.99459 -15.0592 -29.9189
1.99362 -15.1515 -29.9043
2.121 -3.79547 -33.4894
1.89582 -14.5679 -29.934
1.89578 -14.6673 -29.9333
1.8958 -14.7673 -29.9337
1.89393 -15.0517 -29.9041
1.33293 -2.1475 -22.2155
1.75497 -3.21745 -29.2496
1.89718 -3.58356 -31.6197
1.79608 -14.2689 -29.9347
1.79477 -14.3581 -29.9128
1.79504 -14.5598 -29.9173
1.79467 -14.6565 -29.9112
1.79425 -14.7527 -29.9041
1.79322 -14.8438 -29.8869
1.79307 -14.9422 -29.8845
1.79343 -15.0449 -29.8904
1.69657 -14.2711 -29.9394
1.69563 -14.363 -29.9229
1.69573 -14.4636 -29.9247
1.69528 -14.5595 -29.9167
1.69464 -14.6536 -29.9053
1.69398 -14.7476 -29.8938
1.69166 -15.0259 -29.8528
1.69095 -15.1191 -29.8403
1.71074 -19.0195 -30.1896
1.56897 -4.51079 -29.4182
1.59675 -14.3708 -29.9391
1.59636 -14.4671 -29.9318
1.59615 -14.5648 -29.9278
1.59552 -14.6588 -29.916
1.59483 -14.7522 -29.9031
1.59321 -14.8367 -29.8726
1.59223 -14.9272 -29.8544
1.45069 -4.35206 -29.0137
1.4936 -14.8365 -29.8721
1.4928 -14.928 -29.8559
1.49251 -15.0246 -29.8501
1.4922 -15.121 -29.8441
1.36391 -17.1852 -27.2781
1.14493 -2.53519 -24.5341
1.39327 -15.0274 -29.8557
1.39333 -15.1275 -29.857
1.27247 -17.1784 -27.2673
1.1899 -17.2993 -27.4592
1.46739 -0.978259 -36.6847
1.04167 -4.07986 -26.0416
1.08276 -17.0535 -27.0691
1.24023 -4.28442 -33.8244
1.20355 -4.26715 -32.8242
1.22271 -0.733623 -36.6812
0.797927 -3.51088 -23.9378
1.04272 -14.8067 -31.2817
1.02441 -14.7514 -30.7322
1.02075 -14.8009 -30.6226
0.747891 -3.65636 -24.9297
0.734205 -3.83418 -24.4735
0.961792 -15.0681 -32.0597
0.921068 -14.5324 -30.7023
0.90901 -14.6452 -30.3003
0.903582 -14.6581 -30.1194
0.897043 -14.6517 -29.9015
0.785583 -16.41 -26.1861
0.800658 -16.9028 -26.6886
0.661256 -14.768 -22.0419
0.656557 -3.85727 -24.6209
0.825069 -14.5418 -30.9401
0.814321 -14.7596 -30.5371
0.800203 -14.7037 -30.0076
0.799104 -14.7834 -29.9664
0.796582 -14.8363 -29.8718
0.79181 -14.8464 -29.6929
0.707677 -16.6304 -26.5379
0.720668 -17.0258 -27.025
0.587424 -14.6856 -22.0284
0.694492 -14.6835 -29.7639
0.692706 -14.7447 -29.6874
0.688809 -14.7602 -29.5204
0.691749 -14.922 -29.6464
0.691086 -15.0064 -29.618
0.690463 -15.0915 -29.5913
0.630368 -16.9299 -27.0158
0.643007 -17.3612 -27.5575
0.733412 20.0466 -36.6706
0.765567 6.89011 -38.2784
0.765104 6.75842 -38.2552
0.764988 6.62989 -38.2494
0.764998 6.50248 -38.2499
0.731148 -0.365574 -36.5574
0.592855 -14.9202 -29.6428
0.592546 -15.0112 -29.6273
0.592409 -15.1064 -29.6204
0.548531 -17.1873 -27.4266
0.550801 -17.3502 -27.5401
0.440451 -14.6083 -22.0225
0.44044 -14.7548 -22.022
0.626701 4.13622 -37.602
0.626328 4.0085 -37.5797
0.626235 3.88265 -37.5741
0.626242 3.75745 -37.5745
0.494592 -14.4421 -29.6755
0.496192 -14.588 -29.7715
0.495986 -14.6812 -29.7592
0.445245 -16.7412 -26.7147
0.366977 -14.5323 -22.0186
0.486236 -0.607795 -36.4677
0.291992 -3.06592 -21.8994
0.400592 -14.221 -30.0444
0.403696 -14.4321 -30.2772
0.397094 -14.5932 -29.7821
0.396137 -14.6571 -29.7103
0.39582 -14.7443 -29.6865
0.356821 -16.6814 -26.7616
0.357554 -16.805 -26.8165
0.293505 -14.5285 -22.0129
0.296256 -14.6153 -29.6257
0.296111 -14.7068 -29.6111
0.295985 -14.7992 -29.5985
0.295817 -14.8895 -29.5817
0.295438 -14.9688 -29.5438
0.294696 -15.1277 -29.4696
0.294687 -15.2255 -29.4687
0.268197 -16.7176 -26.8197
0.220082 -14.4521 -22.0082
0.243074 -0.607686 -36.4612
0.243137 -0.72941 -36.4705
0.197417 -14.8063 -29.6126
0.197274 -14.8942 -29.5912
0.196987 -14.971 -29.548
0.196694 -15.0471 -29.5042
0.196638 -15.1411 -29.4957
0.196609 -15.2372 -29.4914
0.178066 -16.6492 -26.71
0.146691 -14.3757 -22.0037
0.146705 -14.4505 -22.0058
0.119552 -2.74969 -35.8655
0.119484 -2.86762 -35.8452
0.119467 -2.98668 -35.8401
0.119468 -3.10618 -35.8405
0.118183 -4.49097 -35.455
0.118121 -4.60672 -35.4363
0.112434 -4.49735 -33.7301
0.133136 -7.05619 -39.9407
0.129435 -6.9895 -38.8306
0.129388 -7.11632 -38.8163
0.0983661 -15.05 -29.5098
0.0983413 -15.1446 -29.5024
0.0983351 -15.2419 -29.5005
0.0883665 -16.5245 -26.5099
0.0733426 -14.3751 -22.0028
-0 -4.44619 -35.1015
-0 -4.56148 -35.0883
-0 -4.56874 -33.4298
-0 -4.64609 -33.1864
-0 -4.8563 -32.3753
-0 -4.84306 -31.5852
-0 -5.17939 -33.0599
-0 -6.88519 -39.7222
-0 -6.99218 -39.5784
-0 -6.93238 -38.5132
-0 -7.05891 -38.5032
-0 -7.10279 -38.0506
-0 -7.19886 -37.8887
-0 -7.49268 -37.4634
-0 -7.67052 -37.7239
-0 -7.78846 -37.6861
-0 -7.99464 -38.0697
-0 -8.21459 -38.5059
-0 -8.39378 -38.7405
-0 -8.73344 -39.105
-0 -8.88636 -39.2045
-0 -9.03134 -39.2667
-0 -17.2661 -27.6996
-0 -14.2978 -21.9966
-0.127181 -7.12216 -38.1544
-0.125333 -7.2693 -37.5998
-0.125584 -7.40945 -37.6751
-0.12926 -8.53114 -38.7779
-0.129809 -8.69718 -38.9426
-0.130393 -8.99711 -39.1179
-0.130496 -9.13474 -39.1489
-0.130598 -9.27243 -39.1793
-0.130686 -9.40942 -39.2059
-0.130646 -9.53719 -39.1939
-0.128348 -9.49778 -38.5045
-0.125745 -9.4309 -37.7236
-0.0942404 -17.623 -28.2721
-0.0733119 -14.2225 -21.9936
-0.245519 -9.32974 -36.8279
-0.243183 -9.36256 -36.4775
-0.240525 -9.38048 -36.0788
-0.238115 -9.40553 -35.7172
-0.235093 -9.40372 -35.264
-0.193356 -18.0788 -29.0034
-0.15105 -14.6518 -22.6575
-0.345561 -9.33014 -34.5561
-0.343531 -9.38984 -34.3531
-0.418618 17.1633 -31.3963
-0.416387 16.9678 -31.2291
-0.457387 -9.37643 -34.304
-0.455682 -9.68325 -34.1762
-0.455071 -9.78402 -34.1303
-0.479211 -10.6624 -35.9408
-0.362223 -17.2962 -27.1667
-0.517212 17.068 -31.0327
-0.540376 17.7243 -32.4226
-0.558916 -8.94266 -33.535
-0.559702 -9.06717 -33.5821
-0.568632 -9.66674 -34.1179
-0.575619 -10.0158 -34.5372
-0.586723 -10.3263 -35.2033
-0.598539 -10.654 -35.9123
-0.609262 -10.9667 -36.5557
-0.454354 -17.3563 -27.2613
-0.421007 -16.1667 -25.2604
-0.444528 -17.3366 -26.6717
-0.440165 -17.2545 -26.4099
-0.64932 17.7481 -32.466
-0.672383 -8.96511 -33.6192
-0.68074 -9.4169 -34.037
-0.682333 -9.55266 -34.1166
-0.682696 -9.67153 -34.1348
-0.684221 -9.80716 -34.211
-0.731094 -10.9664 -36.5547
-0.736736 -11.1738 -36.8368
-0.572616 -17.8465 -28.6308
-0.528383 -16.9963 -26.4192
-0.532769 -17.2262 -26.6385
-0.539272 -17.5263 -26.9636
-0.538282 -17.5839 -26.9141
-0.741649 -8.15814 -31.7849
-0.762325 -8.49448 -32.6711
-0.77605 -8.75828 -33.2593
-0.790208 -9.14384 -33.8661
-0.792245 -9.28059 -33.9534
-0.793785 -9.41202 -34.0193
-0.794651 -9.53582 -34.0565
-0.796117 -9.66713 -34.1193
-0.859146 -11.1689 -36.8206
-0.860715 -11.3123 -36.8878
-0.636084 -17.8103 -27.2607
-0.641437 -18.0519 -27.4901
-0.890585 -8.46055 -33.3969
-0.895975 -8.62375 -33.599
-0.897191 -8.97191 -33.6447
-0.90109 -9.12354 -33.7909
-0.903553 -9.26142 -33.8832
-0.905254 -9.39201 -33.947
-0.986313 -11.3426 -36.9867
-0.76082 -17.7842 -28.5308
-0.760296 -17.867 -28.5111
-0.75378 -17.8081 -28.2668
-0.731223 -18.0064 -27.4209
-0.734625 -18.182 -27.5484
-0.736182 -18.3125 -27.6068
-1.01524 -8.34755 -33.8414
-1.01124 -8.42702 -33.7081
-1.00986 -8.52772 -33.6621
-1.01298 -8.7792 -33.7662
-1.01223 -8.88509 -33.7409
-1.01175 -8.99331 -33.7249
-1.01174 -9.10566 -33.7247
-1.11915 -11.5645 -37.3049
-0.854394 -17.8473 -28.4798
-0.850678 -17.8642 -28.3559
-0.843319 -17.8034 -28.1106
-0.823169 -18.1097 -27.439
-0.826227 -18.2688 -27.5409
-0.83034 -18.452 -27.678
-1.13908 18.7949 -34.1725
-1.1399 -8.20725 -34.1969
-1.1382 -8.30887 -34.146
-1.13528 -8.40107 -34.0584
-1.12784 -8.57157 -33.8352
-1.12566 -8.66757 -33.7697
-1.12467 -8.77243 -33.7401
-1.12333 -8.87427 -33.6997
-1.12219 -8.97748 -33.6656
-1.24945 -11.6199 -37.4835
-1.24712 -11.7229 -37.4135
-0.947151 -17.9959 -28.4145
-0.941796 -17.9883 -28.2539
-0.924144 -18.4829 -27.7243
-0.928104 -18.6549 -27.8431
-0.930554 -18.7972 -27.9166
-1.25527 -8.10223 -34.2348
-1.25306 -8.20184 -34.1743
-1.24276 -8.47335 -33.8934
-1.23932 -8.56255 -33.7995
-1.23667 -8.65666 -33.7273
-1.23538 -8.75994 -33.6921
-1.37644 -11.7623 -37.5394
-1.37408 -11.8671 -37.475
-1.04025 -18.0625 -28.3705
-1.03937 -18.1418 -28.3465
-1.01897 -18.6193 -27.79
-1.02158 -18.7599 -27.8612
-1.02402 -18.8979 -27.9279
-1.02576 -19.0232 -27.9753
-1.39392 19.1664 -34.848
-1.38415 18.9167 -34.6037
-1.37026 -7.87897 -34.2564
-1.35723 -7.91717 -33.9307
-1.35637 -8.02518 -33.9092
-1.35243 -8.34 -33.8108
-1.35104 -8.44401 -33.776
-1.34391 -8.51143 -33.5977
-1.50374 -11.9046 -37.5934
-1.13233 -18.2116 -28.3082
-1.13191 -18.2992 -28.2977
-1.11571 -18.8741 -27.8928
-1.11746 -18.9968 -27.9365
-1.11833 -19.1047 -27.9582
-1.52192 19.1996 -35.1213
-1.73026 17.3026 -39.9292
-1.70086 14.261 -39.2506
-1.69958 14.1196 -39.2212
-1.69846 13.9796 -39.1953
-1.69774 13.8431 -39.1786
-1.6973 13.709 -39.1685
-1.69667 13.5734 -39.154
-1.69583 13.4362 -39.1345
-1.69496 13.2989 -39.1145
-1.69401 13.1612 -39.0926
-1.69288 13.0221 -39.0664
-1.69153 12.8817 -39.0354
-1.69123 12.7493 -39.0283
-1.69119 12.6189 -39.0274
-1.48289 -7.75664 -34.2205
-1.46935 -7.79884 -33.908
-1.45274 -8.26943 -33.5247
-1.44523 -8.33789 -33.3516
-1.63228 -12.0538 -37.6681
-1.2261 -18.2971 -28.2945
-1.22598 -18.3898 -28.2919
-1.2221 -18.4255 -28.2024
-1.21076 -19.0927 -27.9406
-1.21104 -19.1903 -27.947
-1.63072 19.1027 -34.9439
-1.82943 14.1127 -39.202
-1.82824 13.973 -39.1765
-1.82735 13.8357 -39.1576
-1.82667 13.7 -39.143
-1.8258 13.5631 -39.1243
-1.78909 10.3512 -38.3377
-1.78764 10.2151 -38.3067
-1.78694 10.0835 -38.2916
-1.78598 9.95044 -38.2709
-1.78504 9.81771 -38.2508
-1.78404 9.68481 -38.2295
-1.783 9.55181 -38.2072
-1.59907 -7.53849 -34.2658
-1.58299 -7.57573 -33.9212
-1.58209 -7.68446 -33.902
-1.55107 -7.97694 -33.2373
-1.5502 -8.08321 -33.2187
-1.55207 -8.64727 -33.2587
-1.75858 -12.1845 -37.6839
-1.31993 -18.3847 -28.2842
-1.31897 -18.4656 -28.2636
-1.99719 17.5753 -39.9438
-1.99618 17.4333 -39.9236
-1.99534 17.293 -39.9068
-1.99527 17.1593 -39.9055
-1.99547 17.028 -39.9095
-1.96783 14.9555 -39.3565
-1.96687 14.8171 -39.3375
-1.96551 14.6758 -39.3103
-1.96414 14.5346 -39.2827
-1.96276 14.3936 -39.2552
-1.96127 14.2519 -39.2255
-1.95996 14.1117 -39.1992
-1.95883 13.973 -39.1765
-1.95802 13.8367 -39.1604
-1.95738 13.7016 -39.1475
-1.93044 11.7114 -38.6089
-1.92797 11.4393 -38.5593
-1.92181 10.8903 -38.4362
-1.91841 10.6152 -38.3683
-1.91701 10.4797 -38.3402
-1.91576 10.3451 -38.3152
-1.91432 10.2097 -38.2864
-1.91343 10.0774 -38.2686
-1.91236 9.94429 -38.2473
-1.91133 9.81149 -38.2266
-1.91008 9.67775 -38.2016
-1.90876 9.54378 -38.1751
-1.90725 9.4091 -38.145
-1.90579 9.27482 -38.1157
-1.90425 9.14041 -38.0851
-1.88237 7.52949 -37.6475
-1.88118 7.3993 -37.6236
-1.8801 7.26973 -37.602
-1.87911 7.14063 -37.5823
-1.87791 7.01086 -37.5582
-1.87649 6.88047 -37.5299
-1.87537 6.75135 -37.5075
-1.87422 6.62223 -37.4843
-1.8732 6.49375 -37.4639
-1.87212 6.3652 -37.4424
-1.86336 5.71431 -37.2672
-1.86217 5.58652 -37.2435
-1.71137 -7.41594 -34.2274
-1.7097 -7.52268 -34.194
-1.6624 -7.75787 -33.248
-1.64648 -7.79336 -32.9297
-1.65277 -7.93331 -33.0555
-1.65625 -8.39166 -33.125
-1.65006 -8.4703 -33.0012
-1.8853 -12.1916 -37.7061
-1.84102 -12.028 -36.8204
-1.41239 -18.5494 -28.2478
-1.41135 -18.6299 -28.2271
-2.10178 15.3692 -39.4083
-2.10018 15.2263 -39.3783
-2.09912 15.0874 -39.3584
-2.09825 14.95 -39.3422
-2.09749 14.8135 -39.3279
-2.09637 14.6746 -39.307
-2.0952 14.5355 -39.2851
-2.09394 14.3958 -39.2613
-2.09251 14.2552 -39.2346
-2.09124 14.1159 -39.2107
-2.09016 13.9779 -39.1905
-2.0893 13.8416 -39.1744
-2.08863 13.7066 -39.1617
-2.08777 13.5705 -39.1457
-2.08675 13.4335 -39.1266
-2.08566 13.2961 -39.1062
-2.08511 13.1623 -39.0959
-2.08457 13.0286 -39.0858
-2.06601 12.1378 -38.7376
-2.06268 11.9893 -38.6752
-2.06007 11.8454 -38.6263
-2.05906 11.7109 -38.6073
-2.05801 11.5763 -38.5877
-2.05646 11.4391 -38.5587
-2.05503 11.3027 -38.5319
-2.05345 11.1657 -38.5023
-2.05171 11.0279 -38.4695
-2.05004 10.8909 -38.4383
-2.048 10.752 -38.4
-2.04635 10.6154 -38.369
-2.04485 10.4799 -38.341
-2.04355 10.3455 -38.3167
-2.04208 10.2104 -38.2889
-2.04122 10.0785 -38.2729
-2.0398 9.94404 -38.2463
-2.00825 7.65646 -37.6547
-2.00683 7.5256 -37.628
-2.00554 7.39544 -37.6039
-2.00436 7.26582 -37.5818
-2.00326 7.13662 -37.5612
-2.00202 7.00707 -37.5379
-2.00058 6.87698 -37.5108
-1.99934 6.74778 -37.4877
-1.99807 6.61862 -37.4639
-1.9968 6.48959 -37.44
-1.99542 6.3604 -37.4141
-1.99393 6.23102 -37.3861
-1.99224 6.10124 -37.3546
-1.99013 5.97039 -37.3149
-1.98813 5.84013 -37.2774
-1.98615 5.71017 -37.2403
-1.98469 5.58194 -37.2129
-1.98325 5.45392 -37.1859
-1.98208 5.32684 -37.164
-1.98092 5.19991 -37.1422
-1.972 4.68351 -36.9751
-1.96992 4.55545 -36.9361
-1.9687 4.42957 -36.9131
-1.96759 4.30411 -36.8923
-1.96658 4.17898 -36.8733
-1.96533 4.05349 -36.8499
-1.96387 3.92775 -36.8226
-1.96241 3.80217 -36.7952
-1.96093 3.67675 -36.7675
-1.95956 3.55171 -36.7418
-1.95848 3.42735 -36.7216
-1.82742 -7.19546 -34.2641
-1.82639 -7.30555 -34.2448
-1.82438 -7.41156 -34.2072
-1.79069 -7.72237 -33.5755
-1.78433 -7.80643 -33.4561
-1.76748 -7.84321 -33.1403
-1.76166 -8.14769 -33.0312
-1.75404 -8.22207 -32.8883
-1.92863 -11.9334 -36.1619
-1.91939 -11.9962 -35.9886
-1.50554 -18.631 -28.2289
-1.50403 -18.7063 -28.2005
-1.50239 -18.7798 -28.1697
-2.19927 12.29 -38.8106
-2.1961 12.1431 -38.7546
-2.19269 11.9953 -38.6945
-2.19017 11.8527 -38.65
-2.18912 11.7183 -38.6316
-2.1878 11.5825 -38.6083
-2.18612 11.445 -38.5786
-2.18465 11.3088 -38.5526
-2.183 11.1718 -38.5235
-2.18125 11.0346 -38.4926
-2.17941 10.897 -38.4602
-2.17725 10.7582 -38.422
-2.17537 10.6209 -38.3889
-2.17368 10.4848 -38.3591
-2.17225 10.3501 -38.3338
-2.17069 10.215 -38.3062
-2.1697 10.0827 -38.2887
-2.16812 9.94782 -38.2609
-2.16661 9.81346 -38.2343
-2.16491 9.67841 -38.2042
-2.16313 9.54321 -38.1728
-2.16114 9.40731 -38.1377
-2.15909 9.2714 -38.1016
-2.15715 9.13617 -38.0674
-2.15495 9.00009 -38.0286
-2.15237 8.86272 -37.9831
-2.15018 8.7272 -37.9444
-2.1478 8.59118 -37.9023
-2.14517 8.45448 -37.8559
-2.14325 8.32084 -37.822
-2.14138 8.18761 -37.789
-2.13953 8.0547 -37.7564
-2.13746 7.92118 -37.7199
-2.13546 7.78815 -37.6846
-2.13374 7.65635 -37.6542
-2.13223 7.52552 -37.6276
-2.1309 7.39549 -37.6042
-2.12971 7.26607 -37.5831
-2.12861 7.13711 -37.5637
-2.12738 7.00782 -37.5419
-2.12594 6.87804 -37.5166
-2.12474 6.74919 -37.4955
-2.12351 6.62037 -37.4738
-2.09206 4.5533 -36.9186
-2.09074 4.42745 -36.8954
-2.08953 4.30198 -36.8741
-2.0884 4.1768 -36.8541
-2.08705 4.05134 -36.8304
-2.08555 3.92574 -36.8038
-2.08404 3.80031 -36.7771
-2.08252 3.67503 -36.7503
-2.08103 3.54999 -36.724
-2.07971 3.4254 -36.7007
-2.0783 3.30083 -36.6759
-2.07678 3.17626 -36.6491
-2.07512 3.05164 -36.6197
-2.07323 2.92692 -36.5865
-2.07099 2.80193 -36.5469
-2.06903 2.67757 -36.5123
-2.06734 2.55378 -36.4825
-2.06566 2.43018 -36.4527
-2.06398 2.3068 -36.4232
-2.06235 2.18367 -36.3944
-2.06075 2.06075 -36.3661
-2.05915 1.93802 -36.3379
-2.05756 1.81549 -36.3098
-2.05598 1.69316 -36.2819
-2.05409 1.57078 -36.2487
-2.05234 1.44871 -36.2177
-2.05068 1.32691 -36.1885
-2.04913 1.20537 -36.161
-2.04765 1.08405 -36.1351
-2.04627 0.962951 -36.1107
-2.04497 0.842045 -36.0877
-2.04344 0.721213 -36.0606
-2.04204 0.600599 -36.036
-2.04095 0.480223 -36.0168
-1.9414 -7.08041 -34.26
-1.94038 -7.1908 -34.2419
-1.93667 -7.51884 -34.1766
-1.92573 -7.58965 -33.9835
-1.91265 -7.6506 -33.7526
-1.90601 -7.73617 -33.6355
-1.86573 -8.01166 -32.9246
-2.0556 -12.0917 -36.2752
-2.08451 -12.3845 -36.7855
-2.10117 -12.607 -37.0795
-2.09905 -12.7178 -37.0421
-1.58492 -18.6462 -27.9692
-1.582 -18.7049 -27.9177
-1.58002 -18.7743 -27.8826
-1.81247 16.5136 -30.2079
-2.29296 9.68138 -38.216
-2.29145 9.54769 -38.1908
-2.28975 9.4134 -38.1624
-2.28811 9.27955 -38.1351
-2.28654 9.14616 -38.109
-2.28442 9.01077 -38.0737
-2.2819 8.87406 -38.0317
-2.27959 8.73843 -37.9932
-2.27705 8.60219 -37.9509
-2.27422 8.46515 -37.9036
-2.27194 8.33043 -37.8656
-2.26971 8.19618 -37.8285
-2.26751 8.06225 -37.7918
-2.26497 7.9274 -37.7495
-2.26252 7.79311 -37.7086
-2.26045 7.66041 -37.6742
-2.2587 7.52899 -37.6449
-2.2572 7.39859 -37.6199
-2.2559 7.26901 -37.5983
-2.25474 7.14 -37.5789
-2.25349 7.01086 -37.5582
-2.25208 6.88137 -37.5347
-2.25082 6.75247 -37.5137
-2.24951 6.62356 -37.4918
-2.24769 6.49333 -37.4615
-2.24572 6.36287 -37.4286
-2.24358 6.23217 -37.393
-2.24121 6.10107 -37.3535
-2.23845 5.96921 -37.3076
-2.23612 5.83875 -37.2686
-2.23391 5.70888 -37.2318
-2.23215 5.58037 -37.2025
-2.23044 5.4522 -37.1741
-2.2289 5.3246 -37.1484
-2.22736 5.19719 -37.1228
-2.22528 5.06869 -37.088
-2.22262 4.93917 -37.0437
-2.22012 4.81026 -37.002
-2.21774 4.6819 -36.9624
-2.2155 4.55408 -36.925
-2.214 4.42801 -36.9001
-2.21268 4.30244 -36.8781
-2.21148 4.17725 -36.8581
-2.21009 4.05183 -36.8348
-2.20856 3.92634 -36.8094
-2.20703 3.80099 -36.7838
-2.20548 3.67579 -36.7579
-2.20397 3.55084 -36.7328
-2.20223 3.42569 -36.7038
-2.2004 3.3006 -36.6734
-2.17019 1.32622 -36.1698
-2.16858 1.20477 -36.1431
-2.16706 1.08353 -36.1176
-2.1656 0.962489 -36.0934
-2.16421 0.841638 -36.0702
-2.16263 0.720878 -36.0439
-2.16112 0.600311 -36.0187
-2.15979 0.479954 -35.9965
-2.15837 0.359729 -35.9729
-2.15683 0.239648 -35.9472
-2.15514 0.11973 -35.919
-2.15322 -0 -35.887
-2.15094 -0.119497 -35.849
-2.14895 -0.238772 -35.8158
-2.14723 -0.357871 -35.7871
-2.14551 -0.476779 -35.7584
-2.1438 -0.5955 -35.73
-2.14214 -0.714047 -35.7023
-2.14019 -0.832296 -35.6698
-2.13837 -0.950387 -35.6395
-2.13667 -1.06833 -35.6111
-2.1353 -1.18628 -35.5884
-2.13396 -1.30409 -35.566
-2.13239 -1.42159 -35.5398
-2.13117 -1.53918 -35.5195
-2.12964 -1.65638 -35.4939
-2.128 -1.77334 -35.4667
-2.12624 -1.88999 -35.4374
-2.12478 -2.00673 -35.4129
-2.12329 -2.12329 -35.3882
-2.12139 -2.23925 -35.3565
-2.11979 -2.35532 -35.3299
-2.1182 -2.47124 -35.3034
-2.1163 -2.58659 -35.2717
-2.11452 -2.70189 -35.242
-2.11286 -2.81715 -35.2143
-2.1113 -2.93236 -35.1883
-2.10982 -3.04751 -35.1636
-2.10843 -3.16265 -35.1405
-2.10712 -3.27775 -35.1187
-2.10559 -3.39234 -35.0931
-2.10406 -3.50676 -35.0676
-2.10253 -3.62102 -35.0421
-2.10147 -3.73594 -35.0244
-2.10036 -3.85066 -35.006
-2.05772 -6.85906 -34.2953
-2.05604 -6.9677 -34.2674
-2.05342 -7.30103 -34.2236
-2.05099 -7.40634 -34.1831
-2.04873 -7.51203 -34.1456
-2.0454 -7.61345 -34.0901
-1.99768 -7.87973 -33.2946
-1.98465 -7.93858 -33.0774
-2.22416 -12.7272 -37.0694
-2.22597 -12.8612 -37.0995
-1.673 -18.6818 -27.8834
-1.66 -18.6289 -27.6667
-1.8316 15.8096 -28.92
-2.36903 6.23428 -37.4057
-2.36691 6.10414 -37.3723
-2.36435 5.9731 -37.3319
-2.36217 5.84325 -37.2973
-2.3602 5.71416 -37.2663
-2.35829 5.58542 -37.2361
-2.35645 5.45705 -37.2071
-2.3549 5.32951 -37.1827
-2.35333 5.2021 -37.1579
-2.35127 5.0738 -37.1254
-2.34848 4.94418 -37.0813
-2.34557 4.8146 -37.0354
-2.34281 4.68562 -36.9917
-2.3402 4.55724 -36.9506
-2.33837 4.4306 -36.9217
-2.33681 4.30465 -36.897
-2.33544 4.17921 -36.8754
-2.33395 4.0537 -36.8518
-2.33239 3.92824 -36.8273
-2.33083 3.80294 -36.8026
-2.32926 3.67777 -36.7777
-2.32775 3.55288 -36.754
-2.32587 3.4276 -36.7243
-2.32388 3.30235 -36.6928
-2.32175 3.17714 -36.6593
-2.31946 3.05191 -36.623
-2.31695 2.92668 -36.5835
-2.31423 2.80144 -36.5405
-2.31188 2.67691 -36.5034
-2.30989 2.55303 -36.4719
-2.30791 2.42938 -36.4407
-2.30597 2.30597 -36.4101
-2.30411 2.18284 -36.3807
-2.30229 2.05994 -36.3519
-2.30048 1.93725 -36.3234
-2.29868 1.81475 -36.2949
-2.29688 1.69244 -36.2665
-2.29488 1.57018 -36.235
-2.29298 1.4482 -36.205
-2.29118 1.32647 -36.1765
-2.28946 1.20498 -36.1494
-2.28784 1.08372 -36.1239
-2.28631 0.962658 -36.0997
-2.28486 0.84179 -36.0767
-2.28324 0.721022 -36.0511
-2.28171 0.600449 -36.027
-2.28041 0.480085 -36.0064
-2.27853 0.359767 -35.9767
-2.25425 -1.0678 -35.5933
-2.25275 -1.18566 -35.5697
-2.25128 -1.30337 -35.5466
-2.24663 -1.65541 -35.4731
-2.22912 -2.81572 -35.1966
-2.22751 -2.93094 -35.1712
-2.22598 -3.04608 -35.1471
-2.22453 -3.16117 -35.1241
-2.22314 -3.2762 -35.1022
-2.22154 -3.39077 -35.0769
-2.21996 -3.5052 -35.052
-2.21839 -3.61948 -35.0272
-2.2171 -3.73406 -35.0069
-2.21573 -3.84836 -34.9851
-2.21426 -3.96236 -34.962
-2.21267 -4.07597 -34.9369
-2.21091 -4.18909 -34.9091
-2.20885 -4.30144 -34.8766
-2.20635 -4.41271 -34.8372
-2.20464 -4.5253 -34.81
-2.20291 -4.6377 -34.7828
-2.20119 -4.74993 -34.7556
-2.19917 -4.86133 -34.7238
-2.19734 -4.97293 -34.6948
-2.19563 -5.08461 -34.6678
-2.19401 -5.19635 -34.6423
-2.19262 -5.30844 -34.6202
-2.19125 -5.42047 -34.5987
-2.17159 -6.74337 -34.2883
-2.17021 -6.85328 -34.2664
-2.1686 -7.07649 -34.2411
-2.16755 -7.18714 -34.2245
-2.16641 -7.29738 -34.2065
-2.1648 -7.40591 -34.1811
-2.14387 -7.67281 -33.8506
-2.13411 -7.75018 -33.6964
-2.12131 -7.81534 -33.4943
-2.34196 -12.6959 -36.9784
-2.34557 -12.8389 -37.0353
-1.74049 -18.5042 -27.4814
-1.73285 -18.5142 -27.3608
-1.72483 -18.5193 -27.2342
-1.92729 15.8038 -28.9093
-2.44473 3.17814 -36.6709
-2.44267 3.05334 -36.6401
-2.44043 2.92851 -36.6064
-2.43799 2.80369 -36.5699
-2.43589 2.67948 -36.5383
-2.43369 2.55538 -36.5054
-2.43152 2.43152 -36.4727
-2.42939 2.30792 -36.4409
-2.42736 2.18463 -36.4105
-2.42539 2.06158 -36.3809
-2.42344 1.93875 -36.3516
-2.42149 1.81612 -36.3224
-2.41955 1.69369 -36.2933
-2.41733 1.57126 -36.2599
-2.41522 1.44913 -36.2283
-2.41322 1.32727 -36.1983
-2.41134 1.20567 -36.1701
-2.40957 1.08431 -36.1436
-2.40792 0.963167 -36.1188
-2.40637 0.842229 -36.0955
-2.4047 0.721411 -36.0705
-2.40318 0.600796 -36.0478
-2.40182 0.480364 -36.0273
-2.39979 0.359968 -35.9968
-2.39758 0.239758 -35.9638
-2.3952 0.11976 -35.928
-2.39259 -0 -35.8889
-2.38968 -0.119484 -35.8452
-2.38715 -0.238715 -35.8072
-2.38516 -0.357775 -35.7775
-2.38315 -0.476629 -35.7472
-2.38115 -0.595288 -35.7173
-2.37923 -0.71377 -35.6885
-2.37715 -0.832004 -35.6573
-2.3752 -0.95008 -35.628
-2.37337 -1.06802 -35.6005
-2.37178 -1.18589 -35.5766
-2.37022 -1.30362 -35.5533
-2.36855 -1.42113 -35.5282
-2.36712 -1.53863 -35.5067
-2.3654 -1.65578 -35.4809
-2.36359 -1.77269 -35.4538
-2.36167 -1.88933 -35.425
-2.36 -2.006 -35.4
-2.3583 -2.12247 -35.3746
-2.35621 -2.2384 -35.3432
-2.35441 -2.35441 -35.3162
-2.35261 -2.47024 -35.2892
-2.3506 -2.58566 -35.259
-2.34868 -2.70098 -35.2302
-2.34687 -2.81625 -35.2031
-2.34516 -2.93145 -35.1774
-2.34354 -3.0466 -35.1531
-2.34201 -3.16171 -35.1301
-2.34055 -3.27677 -35.1083
-2.3389 -3.3914 -35.0834
-2.33728 -3.50591 -35.0591
-2.3353 -3.61971 -35.0295
-2.33364 -3.73383 -35.0046
-2.3319 -3.84764 -34.9785
-2.31004 -5.08208 -34.6505
-2.3084 -5.1939 -34.626
-2.30691 -5.30589 -34.6037
-2.30545 -5.4178 -34.5817
-2.30401 -5.52961 -34.5601
-2.30227 -5.64056 -34.534
-2.30045 -5.75113 -34.5068
-2.29853 -5.86124 -34.4779
-2.29672 -5.97146 -34.4507
-2.29521 -6.0823 -34.4281
-2.29364 -6.19284 -34.4046
-2.29201 -6.30302 -34.3801
-2.29029 -6.41281 -34.3543
-2.288 -6.52079 -34.32
-2.28599 -6.62938 -34.2899
-2.28491 -6.74049 -34.2737
-2.28165 -7.1872 -34.2248
-2.2708 -7.60717 -34.0619
-2.466 -12.8232 -36.99
-2.47559 -12.9969 -37.1339
-1.80244 -18.3848 -27.0365
-2.02301 15.7987 -28.9002
-2.02615 15.7268 -28.945
-2.51575 0.119798 -35.9393
-2.51339 -0 -35.9055
-2.51075 -0.11956 -35.8679
-2.50847 -0.238902 -35.8352
-2.50665 -0.358093 -35.8093
-2.50443 -0.477034 -35.7776
-2.50224 -0.595772 -35.7463
-2.50015 -0.714327 -35.7164
-2.49781 -0.832604 -35.683
-2.49562 -0.950714 -35.6518
-2.49359 -1.06868 -35.6227
-2.49189 -1.18662 -35.5984
-2.49025 -1.30442 -35.575
-2.48846 -1.42197 -35.5494
-2.48697 -1.53956 -35.5282
-2.48526 -1.65684 -35.5037
-2.48346 -1.7739 -35.478
-2.48154 -1.8907 -35.4506
-2.47981 -2.00746 -35.4258
-2.47802 -2.12402 -35.4003
-2.4759 -2.2401 -35.37
-2.47398 -2.35617 -35.3425
-2.47206 -2.47206 -35.3151
-2.46982 -2.58743 -35.2831
-2.46768 -2.70269 -35.2525
-2.46568 -2.81792 -35.224
-2.4638 -2.9331 -35.1971
-2.46203 -3.04823 -35.1719
-2.46038 -3.16334 -35.1483
-2.45882 -3.27843 -35.126
-2.45709 -3.39313 -35.1013
-2.45541 -3.50773 -35.0773
-2.4533 -3.62154 -35.0471
-2.4515 -3.73562 -35.0214
-2.4496 -3.84937 -34.9943
-2.44761 -3.96279 -34.9658
-2.44549 -4.07581 -34.9355
-2.44324 -4.1884 -34.9034
-2.4408 -4.30046 -34.8686
-2.43803 -4.41168 -34.829
-2.43604 -4.52407 -34.8006
-2.43403 -4.63625 -34.7719
-2.43203 -4.74826 -34.7433
-2.42987 -4.85974 -34.7124
-2.42789 -4.97139 -34.6841
-2.42602 -5.08309 -34.6575
-2.42427 -5.19486 -34.6324
-2.4227 -5.30688 -34.6101
-2.42118 -5.41884 -34.5883
-2.41968 -5.53071 -34.5669
-2.41789 -5.64175 -34.5413
-2.41601 -5.75241 -34.5144
-2.41402 -5.86261 -34.4859
-2.41217 -5.97299 -34.4596
-2.41061 -6.08392 -34.4373
-2.39914 -6.74044 -34.2734
-2.39815 -6.85187 -34.2593
-2.39754 -6.96428 -34.2505
-2.39718 -7.07738 -34.2454
-2.39246 -7.40523 -34.178
-2.38938 -7.50948 -34.134
-2.59917 -13.1196 -37.131
-1.8949 -18.4076 -27.0701
-1.89927 -18.5405 -27.1325
-2.1222 15.8201 -28.9391
-2.56697 -3.85045 -35.0041
-2.56525 -3.96447 -34.9806
-2.56341 -4.07815 -34.9556
-2.56144 -4.19145 -34.9287
-2.55932 -4.30431 -34.8998
-2.55656 -4.41587 -34.8621
-2.55438 -4.52822 -34.8324
-2.55216 -4.64029 -34.8022
-2.54994 -4.75216 -34.7719
-2.54746 -4.86332 -34.738
-2.54521 -4.97473 -34.7075
-2.54312 -5.08624 -34.6789
-2.54117 -5.19786 -34.6524
-2.53951 -5.30989 -34.6297
-2.53792 -5.42191 -34.6079
-2.53635 -5.53386 -34.5866
-2.53454 -5.64512 -34.5619
-2.53265 -5.75602 -34.5361
-2.53065 -5.8665 -34.5088
-2.52874 -5.97702 -34.4828
-2.52703 -6.08785 -34.4595
-2.52524 -6.19833 -34.4351
-2.52334 -6.30835 -34.4092
-2.52133 -6.41793 -34.3818
-2.5186 -6.52547 -34.3446
-2.51625 -6.63375 -34.3125
-2.51523 -6.74539 -34.2986
-2.51433 -6.85727 -34.2863
-2.72108 -13.2343 -37.1056
-1.99075 -18.5502 -27.1466
-2.20589 15.729 -28.7725
-2.29969 15.7145 -28.7461
-2.39623 15.7193 -28.7548
-2.84953 -7.06683 -34.1944
-2.79218 -9.38172 -33.5062
-2.79144 -9.4909 -33.4973
-2.79033 -9.59873 -33.484
-2.78933 -9.70685 -33.4719
-2.78814 -9.81424 -33.4576
-2.78631 -9.91928 -33.4358
-2.78474 -10.0251 -33.4169
-2.78311 -10.1305 -33.3973
-2.78264 -10.2401 -33.3917
-2.78035 -10.3429 -33.3642
-2.5876 16.3218 -29.8569
-2.9596 -7.17134 -34.1492
-2.95969 -7.2854 -34.1503
-2.9022 -9.26473 -33.487
-2.90106 -9.37264 -33.4737
-2.8839 -10.5373 -33.2758
-2.88292 -10.6446 -33.2644
-2.88012 -10.7451 -33.2322
-3.2212 -13.3804 -37.1677
-3.09385 -9.28155 -34.3761
-3.07278 -9.33215 -34.142
-2.98659 -10.9508 -33.1844
-3.15019 -12.7174 -35.0021
-2.8809 16.6681 -30.8668
-2.79536 16.0733 -29.9503
-3.19796 -9.59389 -34.2639
-3.19822 -9.70889 -34.2667
-3.14116 -9.64784 -33.6553
-3.11154 -10.3347 -33.3379
-3.11089 -10.4437 -33.3309
-3.09412 -11.1609 -33.1513
-3.40333 -9.50586 -35.2069
-3.31771 -9.49551 -34.3211
-3.26132 -12.1456 -33.7378
-3.25982 -12.2524 -33.7222
-3.49031 -9.42385 -34.9031
-3.37078 -12.2472 -33.7078
-3.36954 -12.355 -33.6954
-2.88365 -13.6493 -28.8365
-2.88118 -13.7336 -28.8118
-3.16846 -9.19875 -30.6625
-3.44464 -12.2229 -33.3352
-3.44348 -12.3299 -33.324
-2.97522 -13.9164 -28.7925
-3.1944 -9.08408 -29.9475
-3.11538 -9.4435 -29.2067
-3.53704 -12.2691 -33.1597
-3.53594 -12.3758 -33.1495
-3.26195 -8.00661 -29.6541
-3.41361 -8.48231 -31.0328
-3.43691 -9.47755 -31.2447
-3.64535 -12.3721 -33.1396
-3.6444 -12.4793 -33.1309
-3.03496 -13.0595 -27.5905
-3.03513 -13.1522 -27.5921
-3.65002 -9.12506 -32.2061
-3.74804 -12.4567 -33.0709
-3.74637 -12.5614 -33.0562
-3.84843 -12.5349 -32.9865
-3.10625 -12.6025 -26.625
-3.10734 -12.6957 -26.6343
-3.22654 -13.2749 -27.6561
-3.99127 17.9607 -33.2606
-3.7818 -9.2444 -31.515
-3.73036 -9.22227 -31.0863
-3.87225 -10.7562 -32.2687
-3.94311 -12.5961 -32.8593
-3.94085 17.361 -31.9528
-3.96955 -9.22651 -32.1855
-3.96503 -9.64466 -32.1489
-3.75323 -10.7525 -30.4316
-4.03952 -12.6644 -32.7529
-4.03413 -12.7566 -32.7092
-4.01973 -12.8197 -32.5924
-4.05737 -9.39601 -32.0319
-4.10349 -10.5827 -32.396
-4.10206 -10.687 -32.3847
-4.05704 -10.6764 -32.0293
-4.14387 -12.7588 -32.7148
-4.13425 -12.8379 -32.6388
-4.12303 -12.9116 -32.5503
-4.12148 -13.0152 -32.538
-4.57708 19.0125 -35.2083
-4.15249 -9.79561 -31.9422
-3.98743 -10.6332 -30.6726
-3.91966 -10.5529 -30.1512
-4.22476 -12.9993 -32.4982
-3.62866 -13.2121 -27.9128
-4.8382 19.7156 -36.2865
-4.77677 19.3459 -35.8257
-4.34571 -10.3211 -32.5928
-4.33983 -10.4156 -32.5487
-4.34696 -10.5414 -32.6022
-4.33397 -10.6182 -32.5048
-4.33315 -10.7246 -32.4986
-4.29073 -10.7268 -32.1805
-4.24503 -10.7187 -31.8378
-4.18585 -10.6739 -31.3939
-4.17012 -10.7381 -31.2759
-4.15388 -10.8001 -31.1541
-4.32504 -13.0833 -32.4378
-5.02183 19.9649 -36.7451
-4.96743 19.6274 -36.347
-4.43185 -13.0794 -32.4282
-4.42403 -13.1642 -32.3709
-3.88599 -13.364 -28.4341
-3.87946 -13.4362 -28.3863
-3.8719 -13.5044 -28.3309
-5.1515 19.9927 -36.7964
-4.52789 -13.1524 -32.3421
-4.52622 -13.2554 -32.3302
-5.27139 19.9823 -36.7771
-4.62607 -13.2327 -32.2749
-4.62819 -13.3464 -32.2897
-5.20697 19.6445 -35.5021
-5.47898 20.2971 -37.3567
-4.72756 -13.3231 -32.2334
-5.71327 20.4408 -38.0885
-5.6833 20.2073 -37.8887
-5.68181 20.0757 -37.8788
-5.76197 20.2309 -38.4131
-5.80412 20.2499 -38.6941
-5.81498 20.1586 -38.7665
-5.83167 20.0869 -38.8778
-5.85097 20.0233 -39.0065
-5.86157 19.9294 -39.0772
-5.86768 19.8197 -39.1179
-5.87311 19.7075 -39.154
-5.87693 19.5898 -39.1795
-5.87854 19.4645 -39.1903
-5.87862 19.3341 -39.1908
-5.8785 19.2031 -39.19
-5.85619 18.4795 -39.0413
-5.85258 18.3381 -39.0172
-5.84969 18.199 -38.9979
-5.84729 18.0616 -38.9819
-5.84523 17.9254 -38.9682
-5.84161 17.7845 -38.9441
-5.83799 17.6437 -38.92
-5.83428 17.5028 -38.8952
-5.83038 17.3616 -38.8692
-5.82621 17.2197 -38.8414
-5.82198 17.0778 -38.8132
-5.81766 16.9359 -38.7844
-5.81326 16.7939 -38.755
-5.80879 16.6519 -38.7252
-5.80427 16.5099 -38.6952
-5.79972 16.3681 -38.6648
-5.79515 16.2264 -38.6343
-5.79055 16.0848 -38.6036
-5.78593 15.9435 -38.5729
-5.7813 15.8022 -38.542
-5.77667 15.6612 -38.5111
-5.77203 15.5203 -38.4802
-5.76739 15.3797 -38.4493
-5.76275 15.2393 -38.4183
-5.75811 15.099 -38.3874
-5.75347 14.959 -38.3565
-5.74883 14.8192 -38.3256
-5.7442 14.6796 -38.2947
-5.73958 14.5403 -38.2638
-5.73495 14.4011 -38.233
-5.73034 14.2622 -38.2023
-5.72573 14.1235 -38.1715
-5.72113 13.985 -38.1408
-5.71653 13.8467 -38.1102
-5.71194 13.7087 -38.0796
-5.70736 13.5708 -38.0491
-5.70278 13.4332 -38.0185
-5.69821 13.2958 -37.9881
-5.69365 13.1587 -37.9577
-5.6891 13.0217 -37.9273
-5.68455 12.885 -37.897
-5.68001 12.7485 -37.8667
-5.67875 12.6194 -37.8583
-5.67855 12.4928 -37.857
-5.64806 11.9237 -37.6537
-5.63709 11.7752 -37.5806
-5.63441 11.6444 -37.5627
-5.63218 11.5147 -37.5479
-5.63028 11.3857 -37.5352
-5.62584 11.2517 -37.5056
-5.62233 11.1197 -37.4822
