ply
format ascii 1.0
element face 0
property list uint8 int32 vertex_indices
element vertex 1584
property float x
property float y
property float z
end_header
-9.329588 4.619014 -22.042436
3.195076 0.483509 -20.584152
-7.721703 4.934096 -21.322149
0.274536 4.241345 -20.609191
0.288034 1.940058 -20.384225
-0.301063 1.444938 -20.447428
-1.053318 4.112491 -20.496029
-9.088787 0.590962 -21.721590
-6.616956 1.199707 -22.096870
-2.390725 -1.843400 -19.025583
-7.566316 0.117256 -21.193677
-10.139415 1.966290 -21.859279
-10.645765 1.584611 -21.623667
-10.172983 0.411211 -22.002452
-3.703167 0.536299 -21.356097
1.795728 2.585945 -20.287703
0.717115 4.443829 -20.674557
-6.753269 1.293205 -21.297121
0.290469 0.895268 -20.573693
-6.159164 -0.140570 -20.671027
-3.195843 -1.208338 -19.378868
-5.961076 2.561530 -21.642933
-1.291892 0.643132 -20.908801
-5.888083 0.000989 -20.933238
-9.437809 1.309580 -21.571901
-7.619115 0.959396 -21.128497
-6.255786 2.164286 -21.812451
-4.945094 0.142280 -20.106292
-7.191258 2.280237 -22.249714
-1.402311 -1.849347 -18.740246
-6.031160 3.348855 -22.182430
-6.317926 3.925876 -21.256357
-6.650840 -0.185277 -20.616356
-1.436372 1.136212 -21.087338
-5.412955 1.861302 -21.900779
-10.192641 -0.009105 -21.596266
-3.110135 -0.689900 -19.245884
-10.573249 0.450618 -21.471211
2.076773 1.401448 -20.224785
0.322584 2.719980 -20.163396
1.282997 1.986367 -20.016530
-9.552554 5.280388 -22.172317
-3.728657 3.526147 -20.244069
-4.985627 5.007443 -20.701042
-5.277928 5.182972 -20.787931
-3.325223 3.828030 -20.321514
-2.053730 0.590598 -21.005912
-1.011249 1.507466 -20.479817
0.940208 3.333319 -20.126203
-10.102717 5.300764 -22.392422
-4.546908 4.897168 -20.716040
-9.623577 4.369037 -23.098393
0.741818 1.846914 -20.030324
-0.554275 3.376434 -20.144967
-8.957804 4.822877 -22.292244
-5.046701 1.525147 -21.694543
-9.149270 5.115769 -21.819030
-6.271805 3.091457 -21.474462
-8.358744 4.696717 -22.022049
-6.879225 5.485514 -21.378920
-2.964758 3.587313 -20.264498
-4.708969 2.469868 -21.341157
-3.027802 2.776547 -20.630833
-7.463122 4.172930 -21.715512
1.194133 1.251974 -20.174747
-0.694365 2.654839 -20.226209
-6.936228 3.959767 -21.502250
1.523858 1.029994 -20.446092
-7.994610 3.152349 -21.774397
-0.417482 3.427795 -19.916738
-3.070300 0.693253 -20.720721
-2.247126 4.384217 -20.332521
-2.785310 4.550025 -20.939000
-8.834946 4.624183 -22.289938
-3.967945 3.193729 -20.500422
0.217596 4.889250 -20.817385
-5.426476 2.592742 -21.574016
-6.973019 4.503242 -21.064385
-0.689495 4.227486 -20.333077
2.728095 0.468346 -20.580653
-10.090873 5.992513 -22.454938
-5.170873 5.085361 -20.772260
1.986471 3.917380 -20.234649
0.480944 3.543092 -20.230529
1.626746 4.119244 -20.337784
-9.671112 6.239530 -22.293563
-8.593272 4.688885 -22.096549
-8.216917 5.904163 -21.771029
-7.057376 2.945933 -22.089798
-3.867480 2.481014 -21.074038
-4.143959 5.005046 -20.639556
-6.132373 -0.414049 -20.517255
-3.332969 -1.837084 -19.571085
0.078217 2.969124 -20.167469
0.894873 2.618815 -20.110945
-5.790323 -0.182854 -19.951931
-8.593812 -0.665874 -21.795368
-9.866341 1.447553 -21.718716
-1.368478 2.125421 -20.345101
-3.389717 -2.094297 -19.668887
-7.387940 0.178898 -21.207535
-2.644311 2.863647 -20.342116
1.238087 0.451194 -20.663557
-9.377237 -0.703199 -22.153876
-9.015402 -0.271142 -21.831255
-2.420737 3.637746 -20.312664
-7.988356 -0.686760 -21.540692
-2.172026 2.371260 -20.497041
-5.457702 0.208628 -20.453697
-9.333747 4.661451 -22.485500
3.203379 0.479261 -20.600430
-7.703170 4.958931 -21.522747
0.183121 4.228600 -20.447843
0.583203 1.908732 -20.889854
-0.358628 1.453535 -20.341468
-1.228210 4.089086 -20.138348
-9.090494 0.568797 -21.871667
-6.592353 1.180880 -22.276152
-2.434513 -1.813981 -18.926080
-7.563841 0.109040 -21.230227
-10.161064 1.946214 -22.260948
-10.665745 1.567953 -21.819855
-10.186761 0.370553 -22.349398
-3.960074 0.640543 -20.563162
1.700944 2.587827 -20.149513
0.620063 4.428944 -20.510868
-6.747831 1.288173 -21.336973
0.256108 0.901130 -20.515209
-3.240999 -1.178297 -19.259737
-5.948036 2.559863 -21.712459
-1.307707 0.646328 -20.875471
-5.889043 -0.000131 -20.927944
-9.442264 1.294897 -21.712829
-7.617519 0.955055 -21.152873
-6.238791 2.159208 -21.916475
-4.928296 0.147651 -20.131553
-7.167308 2.271313 -22.476452
2.187612 1.330018 -20.515505
-5.009065 4.247028 -21.477796
-3.459011 7.407467 -23.205559
0.603180 2.597474 -20.525456
-8.035168 2.582488 -22.295541
-6.186026 3.295886 -21.328124
-8.492605 2.431677 -22.446737
-3.384479 3.671771 -20.655574
-0.255291 3.337865 -20.517703
-4.972074 4.747796 -21.145882
-5.132741 4.233644 -21.066137
-8.331654 3.352381 -21.752108
-9.233047 3.257391 -22.791232
-5.262287 5.640783 -21.398475
-2.697515 3.614190 -20.601108
-4.658382 5.377468 -21.265917
-7.162543 3.862473 -21.729098
-4.904776 2.509511 -21.090916
-4.288176 4.491492 -20.927058
-0.854621 1.282813 -20.538616
-7.766133 4.377370 -22.053798
-6.903883 5.548405 -21.764416
-4.369917 3.258338 -20.861857
-6.487172 6.882214 -22.405830
-9.703716 6.901683 -22.705565
-8.185891 7.295366 -22.444678
-0.934778 4.718409 -20.976710
-9.044965 4.963266 -22.587320
-2.851478 4.435365 -20.626212
-9.197562 6.288421 -22.637831
-8.943590 3.037467 -22.726482
-5.078174 5.641354 -21.391635
-6.315739 5.499911 -21.629278
-2.508023 3.737492 -20.519784
1.500195 2.928994 -20.549721
-3.545981 1.985202 -20.995016
-5.440197 2.580605 -21.175385
-8.643987 4.182561 -22.514053
-8.288716 6.428458 -22.435216
-9.541522 6.189741 -22.876039
-9.278436 4.007093 -22.773857
-5.967480 6.652823 -22.123548
-3.375351 1.968056 -20.975102
-7.582921 5.823099 -21.953020
-3.314446 5.845401 -21.526257
-3.520463 4.666300 -20.796158
-4.950041 5.379157 -21.270103
-0.307909 3.142631 -20.502157
-7.433991 3.104686 -22.041960
-6.047446 4.800461 -21.269822
-3.313939 7.393327 -23.193293
-8.152471 5.004554 -22.249087
1.393420 2.386649 -20.518452
-4.418687 3.254087 -20.872777
-6.345768 3.971249 -21.421114
-0.452454 1.911362 -20.452868
-7.420618 7.272861 -22.442277
-2.163513 2.838925 -20.599458
-7.769450 6.325308 -22.271242
-7.933284 -1.940652 -22.094360
-7.790132 0.138305 -21.656721
-8.721273 -0.472475 -22.259743
-3.957515 4.932496 -20.943755
-1.466107 3.789117 -20.632658
-0.661512 4.160822 -20.739846
-9.470288 6.691693 -22.626385
-5.075111 -1.583381 -20.631593
-3.845575 5.650072 -21.223901
-6.441684 1.039679 -21.391927
-7.899201 -0.746013 -21.986610
-10.412778 -0.747500 -22.815721
-2.475695 5.302753 -21.041381
-2.092857 4.935827 -20.944553
-7.358722 -1.255959 -21.626139
-9.407294 -0.697680 -22.564893
0.581850 4.122815 -20.687299
-0.192164 -1.194449 -19.459542
-9.320266 1.920172 -22.660316
-5.194236 2.580623 -21.097610
-8.960642 3.506599 -22.806569
-6.145153 -0.164463 -20.881928
-4.841333 6.375936 -22.039129
-0.153346 1.097941 -20.542335
-5.714510 -2.158573 -21.435007
-8.057042 3.974830 -22.235126
-4.639144 -1.604682 -20.503872
-6.579929 1.169821 -22.541655
-9.168116 4.562597 -22.763615
-4.512877 2.863939 -20.927521
-7.910603 -1.333004 -22.180573
-6.556723 1.937102 -21.615554
-3.232276 5.318772 -21.027279
-7.276635 0.022677 -21.430664
-7.018439 2.930748 -21.833478
-1.989454 -2.125409 -19.844277
-10.479217 0.778543 -22.587457
-1.707488 1.221064 -20.612298
-7.667058 2.210052 -22.195690
-7.922437 1.062102 -21.748681
0.228083 -1.935156 -19.339197
-9.674124 1.070913 -22.467399
-3.847162 6.653372 -22.209426
-8.323962 1.352447 -22.028848
-5.472707 6.453294 -21.996037
-10.350869 -1.681706 -22.678919
-6.767956 1.292398 -21.608518
-10.688804 1.556947 -22.576325
-5.231386 -1.097251 -20.622068
-6.602754 0.227975 -21.097254
-1.490939 2.531251 -20.500746
-9.704967 2.040952 -22.697654
0.294219 0.437588 -20.625948
-6.260698 -0.978762 -21.133343
-7.717832 5.139613 -21.998244
-11.675270 1.696996 -22.942134
-1.310107 -1.878562 -19.678110
-10.215224 1.275751 -22.623931
-8.758411 1.430865 -22.187961
-3.803538 -1.783267 -20.327135
-9.528330 2.290660 -22.862591
-6.021273 2.148737 -21.330916
-7.369143 0.527136 -21.490529
-11.217790 1.816059 -22.725490
-10.899203 1.043601 -22.650387
-5.772450 -0.247679 -20.713859
-7.846941 1.537621 -22.062863
-9.363726 -0.022350 -22.450475
-1.181652 0.632046 -20.649825
-7.166632 2.303676 -21.985780
-7.370659 0.967358 -21.641164
-2.010789 -1.219421 -19.974960
-6.346067 3.918408 -21.137672
-5.404661 1.866840 -21.893654
0.993802 2.024924 -19.612814
-3.836771 3.521016 -19.964858
-9.625732 4.365773 -22.981793
0.485873 1.887727 -19.652177
-5.082365 1.538633 -21.567325
-9.161467 5.095372 -21.572019
-6.251778 3.087541 -21.573354
-2.996617 2.770467 -20.698866
1.014786 1.292964 -19.914490
-0.784195 2.659136 -20.070454
1.489386 1.037160 -20.396249
-8.052112 3.167556 -21.227885
-0.619164 3.422051 -19.589114
-3.223902 0.772353 -20.335292
-10.116833 6.117143 -23.361099
-3.288707 -1.876547 -19.670233
-5.894493 -0.085437 -19.536628
-2.132478 2.365012 -20.570196
-5.445179 0.221109 -20.460762
0.910403 1.864321 -21.390664
-1.386519 4.074833 -19.847744
-10.165981 1.909953 -22.901684
-10.184391 0.322775 -22.710559
-4.920031 0.155461 -20.119547
2.032346 1.358603 -20.308827
-4.985409 4.252053 -21.556647
-3.341658 7.489772 -23.552847
0.516177 2.605262 -20.388532
-8.017451 2.562625 -22.555031
-6.143832 3.286491 -21.547121
-8.455112 2.413436 -22.951437
-3.389395 3.671335 -20.634886
-0.306007 3.338915 -20.427706
-5.110921 4.237550 -21.136277
-8.351048 3.354364 -21.499732
-9.230902 3.261382 -22.895515
-5.209401 5.668582 -21.589888
-4.612399 5.396370 -21.408956
-7.119661 3.875922 -21.994884
-4.910261 2.510077 -21.065789
-4.248066 4.503781 -21.031058
-0.934440 1.302312 -20.392052
-7.680290 4.422013 -22.847440
-6.860365 5.583667 -22.027875
-4.277532 3.254758 -21.139237
-6.414036 6.966325 -22.809657
-9.707290 7.027978 -23.333013
-0.939813 4.719110 -20.961381
-9.035933 4.993765 -22.912771
-2.718771 4.457452 -20.927173
-9.186479 6.372597 -23.138350
-8.953695 3.031945 -22.658575
-4.931292 5.709878 -21.930153
-6.270406 5.529485 -21.851295
-2.521877 3.736746 -20.481378
1.400014 2.934627 -20.405413
-3.570823 1.990826 -20.923631
-5.481260 2.589874 -21.004029
-8.632217 4.194334 -22.753536
-8.254266 6.509803 -22.889845
-9.540749 6.272207 -23.388946
-9.275689 4.017170 -23.037173
-5.898473 6.716644 -22.442953
-3.490666 1.995805 -20.667531
-7.543637 5.871070 -22.276840
-3.252965 5.870916 -21.681258
-3.501009 4.670421 -20.838011
-4.903868 5.399185 -21.423116
-0.363716 3.144820 -20.403305
-7.421953 3.103025 -22.140316
-6.015143 4.813114 -21.409309
-3.198930 7.472173 -23.525514
-8.129722 5.031625 -22.524559
-4.418589 3.253704 -20.865247
-6.324507 3.974913 -21.522229
-0.529352 1.924196 -20.317877
-7.354126 7.392075 -22.965827
-2.197742 2.841539 -20.520793
-7.725903 6.396339 -22.676925
-7.948743 -1.900328 -21.954289
-7.798864 0.149551 -21.584195
-8.726221 -0.425676 -22.079878
-3.925321 4.941378 -21.025989
-1.491876 3.788407 -20.576252
-0.687622 4.159667 -20.687728
-9.480338 6.659043 -22.475114
-5.123016 -1.532782 -20.460709
-3.791357 5.671993 -21.368612
-6.448829 1.043355 -21.352191
-7.910691 -0.724663 -21.886926
-10.414629 -0.737255 -22.758409
-2.443907 5.312248 -21.105548
-2.076546 4.940120 -20.972019
-7.394528 -1.203865 -21.401536
-9.421490 -0.550131 -21.898174
-9.321340 1.911071 -22.760603
-5.195988 2.580378 -21.084745
-8.952965 3.514269 -22.982874
-6.170223 -0.141016 -20.761701
-4.775070 6.419787 -22.271017
-0.268206 1.115908 -20.358205
-5.719561 -2.144222 -21.401162
-8.040523 3.981962 -22.427481
-4.691740 -1.553521 -20.333712
-6.724987 1.279897 -21.687977
-9.162317 4.584256 -23.071573
-4.516794 2.863917 -20.907960
-7.923521 -1.304869 -22.067767
-6.443513 1.870817 -22.266006
-3.018367 5.376043 -21.576757
-7.289516 0.037901 -21.341371
-7.071821 2.943155 -21.475118
-2.082255 -2.059052 -19.658318
-1.774993 1.239622 -20.473531
-7.662281 2.205986 -22.247708
-7.925059 1.062379 -21.730864
-9.677256 1.064416 -22.502041
-3.771422 6.699449 -22.431457
-8.331110 1.366794 -21.923130
-5.407488 6.503577 -22.258655
-10.381849 -1.903106 -23.467961
-6.771451 1.293378 -21.587564
-10.691707 1.556422 -22.610562
-5.274948 -1.054585 -20.460476
-6.619514 0.243199 -21.003812
-1.643847 2.548254 -20.197363
-9.708613 2.031452 -22.811939
0.180361 0.472261 -20.443300
-6.289498 -0.943912 -20.991745
-7.688657 5.167659 -22.259437
-11.693672 1.684646 -23.055904
-10.220913 1.266687 -22.684835
-8.742662 1.385244 -22.558794
-3.867334 -1.727748 -20.152731
-9.530804 2.282296 -22.994701
-5.975580 2.127288 -21.547978
-7.377714 0.535079 -21.429214
-11.232339 1.804596 -22.835895
-5.802443 -0.221334 -20.584653
-7.861111 1.552976 -21.925371
-9.367391 -0.016214 -22.406028
-1.264796 0.659448 -20.491047
-7.161589 2.300665 -22.024422
-7.374995 0.969529 -21.611498
-2.094509 -1.169459 -19.804420
-9.547005 5.516542 -22.668493
0.266081 2.550730 -19.846685
-9.969764 4.925779 -22.831027
-5.349280 5.707706 -21.517433
1.163658 1.484303 -19.594744
-6.370476 4.101790 -21.585524
-7.193834 6.609391 -22.124318
-5.041942 5.156897 -21.286933
-0.461213 3.244601 -19.972379
-3.689787 3.373167 -20.631440
-6.614641 6.689223 -22.099693
-11.638952 5.815813 -23.368560
0.917886 3.472272 -19.848107
-9.603999 5.197639 -22.776951
-10.712235 6.258594 -22.989277
-1.729893 2.625845 -20.158451
-3.721319 3.613670 -20.665530
-5.164166 3.325266 -21.221282
-10.380780 5.406558 -22.815636
-1.241878 1.514232 -20.105412
-7.723617 6.501794 -22.250765
0.141692 1.182172 -19.891906
-6.548800 5.509924 -21.806831
-2.416027 0.723641 -20.240428
-5.208215 1.619639 -21.249590
-7.990092 3.181684 -22.407938
-6.841576 2.826914 -21.941531
-3.118954 2.771907 -20.436367
-9.883269 5.216279 -22.791549
-10.543149 5.481717 -22.918803
-10.079497 3.293268 -23.376202
-1.984325 4.283414 -20.365091
-11.114332 5.416257 -23.425819
-0.563721 5.164754 -20.886823
-9.071801 6.200318 -22.584355
-1.942700 5.734082 -21.348418
-6.155810 6.325120 -21.937357
-0.535240 3.027721 -19.976727
-6.250646 3.002232 -21.524453
-1.886648 5.276915 -20.847774
-8.066095 5.644245 -22.391816
-0.160529 5.148793 -20.882157
-10.198093 3.943346 -23.274147
-4.697336 -2.382596 -20.776755
-6.257783 4.561808 -21.540356
-5.668536 2.643361 -20.432451
-0.772971 3.427881 -20.017946
-8.392125 4.808857 -22.505057
-9.095469 5.042540 -22.693815
-9.505839 4.136653 -22.986485
-0.692810 3.101875 -19.999920
-10.754386 4.548114 -23.362183
0.345712 1.756874 -19.794199
1.118209 4.408706 -20.137594
-3.629893 2.042399 -20.355342
-9.040391 6.372765 -22.512810
-8.306828 5.981945 -22.484174
-8.856496 4.610541 -22.682689
-7.645343 5.655202 -22.179627
-0.763255 6.453144 -21.985670
-1.148592 4.071189 -20.263372
0.308223 6.367236 -21.856444
-5.727500 4.750801 -21.329762
-3.900156 2.642733 -20.745491
1.853415 6.017533 -21.349052
-9.255418 3.390759 -22.819242
-2.813342 2.305476 -20.336895
-8.684961 0.433825 -22.003398
-2.682126 2.859498 -20.315044
-3.682545 1.263345 -20.669759
-11.240264 3.663744 -23.663345
-4.804562 -2.442828 -20.846977
-5.721633 5.365180 -21.421599
-1.173838 3.474528 -20.094773
-11.171617 4.799360 -23.496712
-7.628933 3.121359 -22.240981
-10.087037 6.098589 -22.729234
-4.032605 5.505405 -21.155867
-0.412337 1.804224 -19.954881
-9.630564 5.755540 -22.647573
-2.087154 6.339317 -21.944598
-2.030056 4.742339 -20.585022
-0.177633 2.252543 -19.898827
-1.720738 1.836077 -20.160402
-8.403444 6.289705 -22.487750
2.484985 5.536067 -20.823059
-7.727702 0.100216 -21.739246
-4.922366 -1.366951 -20.463315
0.374252 2.965106 -19.814795
-3.804528 5.760779 -21.328451
-11.614094 4.768469 -23.650666
-7.763287 -2.431908 -23.108966
-2.357584 -2.526419 -19.729825
-5.868066 0.449972 -21.069316
0.942562 4.895041 -20.503314
0.271184 0.640786 -19.889546
-4.497714 5.317588 -21.192266
-10.153639 6.574798 -22.604382
-5.187886 -0.363788 -20.483580
-2.301299 2.330575 -20.237025
-9.836919 1.378090 -22.462136
-7.011655 0.158727 -21.449806
-3.873060 -2.417103 -20.452208
-1.063051 4.814283 -20.604383
-7.531833 -3.159514 -23.698996
-7.893094 -0.727729 -21.954297
-1.024038 2.020036 -20.022729
0.128750 3.435681 -19.928534
-8.377856 4.701224 -22.513209
-3.558841 4.679443 -20.793524
-3.662142 -2.864788 -20.273191
-5.177953 -0.593144 -20.484424
-5.021123 6.034917 -21.650363
-6.506050 -0.212748 -21.026957
-5.810469 -1.455814 -21.003857
-7.914146 -1.279425 -22.029349
-2.849639 5.732815 -21.253593
-5.606342 -2.662734 -21.272418
-11.768282 1.684526 -23.546481
-9.575525 2.356035 -22.914339
-6.193140 -1.128671 -21.064071
-9.348916 -0.246498 -22.433936
-9.719815 0.792849 -22.428632
-5.282355 -1.062963 -20.582476
-1.102076 5.916972 -21.555297
-8.985484 0.549678 -22.113399
-6.838918 1.321485 -21.694890
-8.143887 0.959055 -21.845613
-7.419328 0.006860 -21.660612
-7.627764 2.182171 -22.320573
-2.032013 1.284943 -20.202351
-6.695253 -0.080836 -21.175462
-4.382504 -1.634563 -20.329234
-7.526239 1.087380 -21.730399
-3.938546 -1.686739 -20.099513
-7.950636 0.160480 -21.812305
-5.337796 6.338421 -21.708671
-7.236680 0.677379 -21.588663
-5.165555 -0.712460 -22.307730
-9.047448 2.041528 -22.603010
-1.879899 0.814743 -20.154621
0.745973 5.518910 -21.007474
-7.196696 -3.431048 -22.670140
-10.685805 0.268365 -22.970004
-11.553210 0.124507 -23.646995
-6.975675 2.268453 -22.038372
-8.248564 -3.262173 -23.742870
-0.267702 0.501757 -19.995006
-7.554404 3.910976 -22.091590
-4.897818 0.047589 -20.515170
-8.018828 -2.704752 -23.366946
-5.603966 1.929190 -21.221655
-9.604096 4.401267 -23.910414
-9.168326 5.090400 -21.532618
-3.039174 0.703028 -20.720333
-3.367485 -1.815373 -19.494611
-5.377236 0.186043 -20.638510
-10.159490 1.870248 -23.301713
-10.172956 0.302044 -22.890284
-7.976144 2.544345 -22.866487
-6.201936 3.301828 -21.284482
-8.409143 2.389834 -23.337976
-8.375769 3.360658 -21.312641
-9.227498 3.264349 -22.961620
-7.088128 3.880018 -22.145919
-4.240405 4.505536 -21.042683
-7.744769 4.400590 -22.352083
-4.210565 3.247937 -21.306013
-2.639758 4.462845 -21.081937
-8.923214 3.018537 -23.126448
-4.838652 5.737691 -22.218259
-5.519566 2.601003 -20.873194
-3.588407 2.023548 -20.441203
-8.754849 -0.300850 -21.637906
-9.504234 6.614893 -22.223603
-7.412295 -1.176916 -21.304337
-9.460611 -0.371813 -21.198517
-8.944545 3.518474 -23.090347
-0.379477 1.139393 -20.192274
-5.859870 -1.927666 -20.837915
-6.849116 1.364677 -21.140156
-6.331668 1.811149 -22.748988
-2.880040 5.397657 -21.886711
-7.122219 2.960322 -21.223234
-8.334879 1.374153 -21.885165
-10.377542 -2.132723 -24.205700
-10.695624 1.534549 -22.841864
-1.706298 2.546916 -20.096737
-8.714749 1.341247 -22.859680
-5.933975 2.109710 -21.697626
-7.870968 1.564391 -21.855001
-9.541903 5.536165 -22.845728
-9.969337 4.939097 -23.012395
-5.337346 5.713798 -21.551867
1.032127 1.511234 -19.426199
-6.361904 4.102957 -21.617442
-7.170799 6.633672 -22.251525
-5.036788 5.159149 -21.296889
-0.329593 3.218106 -20.183434
-3.709478 3.374425 -20.578671
-6.589191 6.712468 -22.216157
-11.664886 5.849781 -23.649542
0.805010 3.476107 -19.696082
-9.599638 5.213792 -22.954727
-10.721958 6.295644 -23.235424
-1.786403 2.633639 -20.053918
-3.739666 3.614241 -20.615559
-5.167154 3.325719 -21.206315
-10.385058 5.426994 -23.017180
-1.312664 1.532236 -19.984041
-7.702656 6.527711 -22.394870
0.036360 1.208937 -19.739946
-6.532695 5.518963 -21.875824
-2.468368 0.744054 -20.135243
-5.217313 1.623378 -21.215812
-7.980143 3.179180 -22.489105
-6.958892 2.846884 -21.368786
-3.305234 2.798956 -20.023551
-9.881795 5.233138 -22.976387
-10.549726 5.504266 -23.133136
-11.130778 5.442060 -23.687435
-0.622991 5.158120 -20.786168
-9.061297 6.227985 -22.763725
-1.965510 5.730916 -21.299242
-6.133838 6.341096 -22.023963
-0.613436 3.034119 -19.853025
-6.246859 3.001498 -21.535528
-1.918513 5.272537 -20.782504
-8.070916 5.647873 -22.333637
-0.229543 5.141406 -20.770476
-10.200577 3.946208 -23.465814
-4.728988 -2.347400 -20.683573
-6.248172 4.564334 -21.575024
-5.672200 2.643356 -20.411507
-0.843798 3.430849 -19.902032
-8.379591 4.817929 -22.631903
-9.086843 5.055617 -22.850857
-9.501314 4.141102 -23.149074
-0.767626 3.107509 -19.879141
-10.764240 4.559212 -23.587950
0.238096 1.777831 -19.642602
1.005308 4.403737 -19.985127
-3.655197 2.048694 -20.291014
-9.029230 6.402762 -22.694622
-8.290795 6.003860 -22.636026
-8.846774 4.618697 -22.824207
-7.628361 5.669737 -22.292162
-0.796337 6.447732 -21.923758
-1.207311 4.069884 -20.160686
0.247079 6.356278 -21.756785
-5.733671 4.750638 -21.299905
-3.920123 2.646309 -20.690657
1.736051 5.999502 -21.189344
-9.249764 3.388298 -22.952425
-3.041033 2.332742 -19.871128
-8.681611 0.424029 -22.042588
-2.719829 2.864074 -20.233706
-3.711872 1.274501 -20.595404
-11.257003 3.663260 -23.898070
-4.835137 -2.407848 -20.754853
-5.769603 5.345465 -21.243550
-1.237076 3.476963 -19.985547
-7.619083 3.119000 -22.307254
-4.033600 5.506255 -21.147110
-0.500891 1.822337 -19.818175
-9.626089 5.778615 -22.832159
-2.097097 6.339565 -21.920415
-2.066326 4.738884 -20.511140
-0.268904 2.266734 -19.761593
-1.780308 1.849761 -20.051102
-8.387065 6.316293 -22.651411
2.342844 5.519408 -20.645582
-5.189613 -1.104223 -19.669106
0.273152 2.973328 -19.671587
-3.804118 5.762470 -21.323771
-7.765664 -2.430352 -23.101978
-2.425738 -2.471502 -19.600631
0.841713 4.886770 -20.361343
0.159325 0.674637 -19.730813
-10.154896 6.612656 -22.822850
-5.205665 -0.349635 -20.423056
-2.347708 2.339045 -20.143705
-9.836164 1.363583 -22.555592
-7.013021 0.159295 -21.438518
-3.916221 -2.374864 -20.344684
-1.117462 4.809348 -20.507845
-7.537361 -3.151163 -23.676345
-7.991856 -0.523690 -21.199036
-1.097447 2.034243 -19.900288
0.036868 3.439271 -19.793628
-8.365470 4.709307 -22.637766
-3.573022 4.678065 -20.753900
-3.711575 -2.801396 -20.145345
-5.462055 -0.342993 -19.594976
-5.006692 6.042996 -21.690840
-6.511854 -0.207233 -20.996018
-5.826016 -1.437887 -20.943275
-7.914888 -1.280082 -22.024498
-2.861174 5.731527 -21.223070
-5.627979 -2.632948 -21.193939
-11.788527 1.661261 -23.743249
-9.572870 2.345841 -23.038130
-6.204037 -1.116009 -21.015880
-9.347073 -0.261449 -22.489120
-9.718645 0.777121 -22.508992
-5.417437 -0.929862 -20.146751
-1.137369 5.911611 -21.488090
-8.955741 0.507255 -22.421388
-7.011570 1.460392 -20.807770
-8.139885 0.952056 -21.876820
-7.495039 0.136509 -21.152027
-7.468642 2.089984 -23.382705
-6.699344 -0.077172 -21.151259
-4.414693 -1.604912 -20.240667
-7.522975 1.083027 -21.747850
-3.976660 -1.653725 -20.004032
-7.948383 0.155263 -21.827199
-5.319011 6.350229 -21.767029
-7.235527 0.675152 -21.591371
-5.183271 -0.697215 -22.248768
-9.042425 2.031679 -22.695564
-1.941758 0.836733 -20.039736
0.657447 5.507498 -20.876317
-7.204863 -3.414554 -22.627635
-10.674542 0.308413 -22.856465
-11.568387 0.090722 -23.810074
-6.969780 2.265519 -22.067911
-8.250735 -3.263118 -23.744051
-0.366819 0.534718 -19.845269
-7.542949 3.912140 -22.164130
-4.917204 0.060696 -20.453185
-8.020597 -2.705501 -23.366975
-8.419338 2.403707 -23.060846
-4.382945 1.843992 -20.663662
-6.231371 4.003163 -20.335526
-9.541054 5.759837 -24.194878
-4.513083 1.918726 -20.620082
-6.935842 6.562063 -22.861877
-9.884715 5.048324 -24.631078
-5.260434 4.434709 -20.074440
-3.208479 3.497443 -19.988699
-9.916598 4.914327 -24.859386
-4.349591 4.472488 -19.864201
-6.620717 4.186808 -20.654072
-4.003323 3.752148 -19.873389
-8.874487 6.321868 -24.172422
-5.698361 3.338580 -20.241928
-0.120486 0.955750 -21.443756
-10.396666 7.476429 -24.407860
-5.407835 5.561262 -20.848348
-8.900503 5.330196 -23.783897
-5.179516 2.549025 -20.422444
-6.738879 5.489141 -21.675273
3.020480 0.865976 -22.359490
-9.611969 6.616124 -25.022835
-6.861778 5.738303 -22.141799
-8.412375 6.289455 -23.720396
-6.570574 2.949140 -20.881442
-3.213300 1.853669 -20.449381
-7.350069 6.547320 -23.110399
-8.839556 4.905782 -23.600524
-9.315306 4.060730 -24.282993
-5.379421 1.693023 -20.786608
-3.681984 1.286538 -20.712123
-6.738280 7.313511 -23.567846
-8.769177 4.585714 -23.415746
3.445448 -0.208113 -22.942817
-9.465494 6.130614 -24.159645
-0.341671 2.597287 -20.761597
-1.260058 -2.475616 -19.756642
-7.446756 3.148640 -22.007060
-5.289432 -0.019622 -18.802567
-9.118616 1.000442 -19.902018
-9.058842 7.100617 -24.692934
-4.137579 2.549114 -20.272453
-0.087259 1.828037 -21.048831
-5.494918 2.620759 -20.418294
-7.734571 5.972681 -23.038306
-7.265829 7.414248 -23.736981
-7.000029 4.578985 -20.971176
-7.694457 5.001686 -21.846974
-4.918588 1.010599 -21.025371
-5.289105 5.036471 -20.303276
-7.984815 6.966786 -23.929329
1.400476 0.528441 -22.069319
-8.247132 4.777057 -23.004526
-9.736125 4.620368 -24.961499
-7.166173 6.160138 -22.750882
-4.901779 5.887484 -22.398125
-4.176528 4.603185 -19.960289
-5.218462 4.865811 -20.230059
-7.510380 5.944951 -22.772995
0.901803 1.492262 -21.589606
-2.319100 -2.524797 -19.769733
-8.048378 4.002081 -22.438782
-10.437411 -0.990042 -23.645097
-9.839178 1.486274 -22.816206
-5.152100 3.271293 -20.101655
-10.173126 5.051973 -24.980390
-6.485069 4.723061 -20.722433
-3.154016 4.449538 -19.977045
-6.395171 -0.073443 -19.495801
-6.542691 4.008647 -20.647900
-8.896161 5.047799 -23.717877
-0.711885 -3.260487 -19.971805
-4.670899 3.922961 -19.838396
-5.999516 0.027825 -19.257850
-10.244648 -0.116860 -22.492797
-8.064239 7.494681 -24.253910
-5.861422 0.544220 -19.378696
-6.855885 0.057745 -19.668656
-2.089574 -2.037548 -19.594006
-10.102388 1.809249 -23.226046
-9.170407 6.333185 -24.333861
-7.879494 -1.014007 -21.077082
-7.425824 -1.064692 -20.450744
-2.416817 2.847753 -20.139572
-8.577743 1.870137 -23.125683
-5.618096 -1.210580 -19.705131
-6.189470 1.117877 -20.463684
-2.166871 2.371465 -20.268231
-10.938711 -0.552987 -23.336419
-9.219960 -0.009119 -21.201334
-1.195563 0.508640 -21.168151
-7.823451 1.602389 -22.572925
-9.575591 0.602299 -21.613193
-5.744802 0.297953 -18.813891
-5.825145 1.046706 -20.863213
-6.732071 2.075851 -21.110167
-4.595209 4.849804 -20.000904
-6.533535 0.350674 -19.766878
-10.702581 0.955242 -22.875753
-5.094782 5.162092 -20.367655
-8.300908 1.057347 -20.590616
-9.696324 1.132052 -22.419281
-9.590978 2.359975 -25.104802
-7.726555 1.593620 -21.479261
-7.211834 1.793637 -22.132528
-3.269283 -1.216632 -19.267250
-8.927322 1.476310 -22.555752
-9.967920 0.929394 -22.276621
-11.241754 1.674079 -24.334039
-3.560262 -0.534497 -18.998736
-4.721296 -1.323211 -19.553644
-0.953028 0.924200 -21.084079
-8.414165 -0.848685 -21.591278
-5.805045 5.701667 -21.071621
-4.224655 -1.452487 -19.506645
-3.845012 0.810893 -20.927003
-6.128446 2.437055 -20.640881
-7.436487 0.314308 -20.348522
-11.449847 -0.235079 -23.564098
-7.529569 1.039483 -20.134734
-4.030555 0.316356 -20.624846
-8.492918 1.641396 -22.687660
-2.836146 0.609479 -21.103178
-3.720496 -1.550598 -18.844735
-10.179254 0.337072 -22.744064
-8.040372 2.579404 -22.492068
-7.898229 4.391395 -21.598279
-8.848668 2.972609 -23.812507
-8.782626 -0.223963 -21.397804
-6.177083 -1.548939 -19.878338
-10.691738 1.475475 -23.240895
-1.684053 2.545720 -20.117998
-0.159174 3.200567 -20.406319
-3.553731 2.846548 -19.543867
-8.055003 5.666690 -22.463822
-5.671946 4.764823 -21.482190
-5.778656 5.337048 -21.235950
-5.574458 -0.756954 -18.722076
-8.149148 -0.275046 -20.365063
-3.888538 -2.615068 -19.763745
-5.713765 -0.128711 -18.945247
-5.704016 -0.663026 -19.372725
-7.252577 1.626100 -19.878160
-7.646803 0.321601 -20.449696
-10.676577 0.395460 -22.505731
-8.406917 2.400610 -23.152102
-4.397772 1.851205 -20.619099
-6.148865 4.002342 -20.588637
-9.518087 5.806508 -24.626237
-4.521394 1.923448 -20.590262
-6.849546 6.628182 -23.253321
-5.187492 4.440935 -20.252675
-3.240283 3.502923 -19.917993
-4.308574 4.477215 -19.943199
-6.533684 4.189975 -20.955317
-3.913963 3.758281 -20.042129
-8.867199 6.342945 -24.344222
-5.643185 3.342690 -20.373838
-0.360360 1.033874 -21.080429
-5.318991 5.590138 -21.090014
-8.864315 5.363830 -24.173903
-5.153807 2.543051 -20.479251
-6.645229 5.526614 -22.040514
2.074826 1.089187 -21.207717
-6.772763 5.782378 -22.514178
-8.358273 6.352684 -24.163214
-6.513773 2.934449 -21.075827
-3.387700 1.900235 -20.104291
-7.270171 6.615792 -23.526778
-8.803830 4.928232 -23.965053
-9.303511 4.065503 -24.505255
-5.370757 1.690226 -20.800860
-3.739905 1.311858 -20.580137
-6.659256 7.391963 -23.930153
-8.733136 4.600394 -23.762113
3.028646 -0.067699 -22.428816
-9.438170 6.190594 -24.625889
-0.550732 2.634308 -20.449880
-1.569016 -2.260543 -19.291407
-7.395762 3.136062 -22.252856
-5.161071 -0.114924 -19.095284
-9.084203 0.936462 -20.162380
-4.144669 2.552705 -20.246354
-0.316183 1.883949 -20.710534
-5.121299 2.520923 -21.445901
-7.663266 6.026008 -23.455907
-7.190534 7.502003 -24.142594
-6.908459 4.592569 -21.330704
-4.942206 1.024474 -20.954602
-5.178526 5.049227 -20.597699
-7.922245 7.047271 -24.366488
1.083549 0.631616 -21.634448
-8.195227 4.796842 -23.372775
-7.083577 6.216586 -23.146145
-4.836483 5.916976 -22.580756
-4.140891 4.608765 -20.026233
-5.140427 4.879140 -20.422869
-7.432511 5.997545 -23.186690
-2.585182 -2.316251 -19.318251
-7.994480 4.003344 -22.772269
-10.444857 -0.947547 -23.479647
-9.833760 1.462394 -22.958925
-5.107176 3.265753 -20.204964
-6.389868 4.739044 -21.044459
-3.172742 4.452521 -19.931301
-6.402287 -0.068624 -19.458890
-6.459557 4.008145 -20.929540
-8.861542 5.073760 -24.088414
-1.056800 -3.005476 -19.474198
-4.627072 3.923179 -19.928088
-8.005071 7.589001 -24.695737
-5.827652 0.516092 -19.461177
-6.851285 0.051083 -19.669742
-2.350143 -1.853116 -19.168079
-10.104378 1.792414 -23.316676
-9.138452 6.395841 -24.774804
-7.892807 -0.993140 -20.996700
-7.444518 -1.038253 -20.356178
-2.503789 2.864347 -19.979054
-8.564966 1.855921 -23.242456
-5.588343 -1.240829 -19.773518
-6.195352 1.124131 -20.429420
-2.276033 2.397128 -20.073452
-9.213614 -0.029844 -21.255710
-1.391066 0.587243 -20.843723
-7.804352 1.586369 -22.683365
-9.588443 0.645783 -21.416045
-5.757821 0.305316 -18.765311
-5.818909 1.043397 -20.872020
-4.279043 4.895995 -20.717220
-6.526449 0.342830 -19.775903
-10.705687 0.935557 -22.961645
-5.016446 5.180123 -20.559296
-8.267046 1.014584 -20.776383
-9.689686 1.106469 -22.545620
-7.691144 1.564390 -21.652969
-7.188544 1.779390 -22.236491
-3.438690 -1.097561 -18.950882
-8.912617 1.452712 -22.698959
-9.963394 0.901839 -22.399474
-11.249538 1.671795 -24.343512
-3.697371 -0.447852 -18.735208
-4.816892 -1.238918 -19.323795
-1.153200 0.994584 -20.761574
-8.425330 -0.829441 -21.511859
-5.708697 5.737715 -21.361310
-4.347845 -1.349262 -19.236427
-3.909157 0.843592 -20.777085
-6.085252 2.422188 -20.768519
-7.421135 0.295392 -20.401284
-11.452563 -0.223571 -23.495701
-7.492071 1.003008 -20.283979
-8.475097 1.621038 -22.826763
-8.919616 5.170133 -23.422867
-9.229129 5.156146 -23.643796
-6.438507 4.229596 -21.580163
-4.957727 4.584211 -20.821642
1.444479 1.331951 -20.015278
-6.054505 3.902928 -21.230899
-0.644295 3.385885 -19.829059
-4.443630 1.802778 -20.809752
-9.767518 4.839893 -24.046149
-3.826152 3.077597 -20.275706
-7.004129 3.968200 -21.902570
0.699744 4.081586 -20.027839
-7.929108 3.153879 -22.616845
-4.513453 4.618281 -20.608811
-8.806577 4.983179 -23.371891
-2.916206 3.310648 -19.977160
-7.448803 5.855864 -22.818054
0.902614 3.616092 -19.880465
-10.045716 3.417583 -24.563997
-5.237104 1.626917 -21.252222
-6.183274 3.849506 -21.333022
-4.644965 5.200052 -20.794412
-5.210362 5.423087 -21.233962
-8.078054 3.233019 -22.700588
-8.664518 5.622074 -23.253116
-2.586838 3.957776 -19.967058
-6.720262 4.062789 -21.695571
0.877193 1.734476 -20.115003
-2.870994 2.872612 -19.901247
-6.873912 5.147491 -21.921557
-7.585421 6.164976 -22.742594
-1.223632 2.788671 -19.772376
1.454383 2.042092 -19.850815
-3.884216 4.537608 -20.401560
-8.483966 4.761362 -23.138475
-7.301369 3.113850 -22.211788
-1.814730 2.984024 -19.787514
0.251991 4.236361 -20.136687
-4.084298 2.499727 -20.447667
-9.379788 6.189963 -23.918505
-6.002818 4.702154 -21.288730
-3.408143 5.311279 -20.553578
-10.134979 6.254451 -24.369215
-5.535214 4.864325 -21.114338
-9.166020 4.324393 -23.586317
-8.698305 -1.247336 -21.551830
1.034675 1.903975 -19.882608
-1.940850 3.752866 -19.828448
-3.874033 3.898662 -20.275413
-1.766002 2.054152 -19.840889
-5.178561 -1.072465 -19.626872
-9.778761 1.358280 -22.385104
-8.013848 -0.427637 -20.923028
-8.607915 4.158079 -23.077691
-8.013884 -1.608458 -21.250990
-3.212456 2.415472 -20.019099
-0.427113 2.913703 -19.740088
-3.298651 2.917164 -20.027167
-7.523664 0.247281 -20.709467
-10.482206 -0.657500 -22.771917
-2.160539 4.288789 -19.965601
-1.964244 2.336966 -19.749745
-10.255490 5.086163 -24.401072
-4.636289 4.022743 -20.553654
-3.674315 4.553167 -20.363395
-1.127811 1.978105 -19.856533
-8.027758 -0.966058 -21.062300
-6.078466 0.548220 -20.484943
0.525915 2.822403 -19.621259
-3.116856 4.430096 -20.189448
-7.969465 -1.996774 -21.228024
-6.585169 -0.013552 -20.264697
-8.685231 -0.748187 -21.391800
-7.428070 -0.925110 -20.672427
-8.973586 0.707394 -21.406974
-2.499169 4.145607 -19.940314
-9.435523 2.112516 -23.765947
-6.467037 -0.960819 -20.222177
-5.455120 0.886592 -21.476297
-4.709277 2.835147 -20.647015
-10.206561 0.427937 -22.172179
-6.739881 3.310136 -21.728701
-5.439560 0.149276 -19.507301
-10.362267 0.825684 -22.524389
-0.430009 1.311477 -20.207748
-10.633493 1.521393 -22.960215
-7.300438 1.049807 -20.741184
-6.125062 -1.586918 -20.063435
0.813767 4.059067 -19.965217
-8.999039 1.955276 -23.273645
-9.229258 -0.046887 -21.498085
-11.621997 1.602811 -24.124993
-7.063657 -0.023957 -20.485612
-5.610668 1.902012 -21.326633
-8.298999 1.122799 -21.025308
-4.784151 -1.257918 -19.395029
-10.052754 -0.515232 -22.221885
-2.055752 2.184713 -19.868977
-8.289139 1.621964 -22.812182
-2.093340 1.269226 -20.200510
-10.762308 1.054902 -22.869928
-6.078295 -1.177561 -20.093843
-7.870550 -2.516452 -21.169596
-8.914191 1.463382 -22.242909
-10.967463 1.355043 -23.154653
-9.375487 1.312795 -22.251011
-7.470645 -0.688905 -20.638614
-8.578266 -2.649587 -21.940618
-9.765162 0.951889 -22.168443
-9.258191 2.388667 -23.498364
-6.376266 4.906728 -21.610635
-2.804766 0.597589 -21.153851
-8.092755 2.615069 -22.275984
-8.780346 -0.223291 -21.385354
-5.777197 5.335434 -21.248656
-5.655732 -0.172875 -19.052789
-5.771741 -0.612253 -19.224158
-8.366591 2.373373 -23.430225
-8.856506 6.356604 -24.500273
-5.646679 3.345104 -20.359534
1.810678 1.150144 -20.927683
-3.463173 1.916328 -19.980617
-5.088428 -0.164064 -19.223849
-4.900877 2.460568 -21.932900
-5.205860 5.033045 -20.527024
-5.830298 0.514806 -19.448456
-10.108066 1.791765 -23.322375
-5.606408 -1.201521 -19.689005
-6.221658 1.138750 -20.359326
-9.618375 0.698476 -21.216598
-4.096385 4.902492 -21.060478
-8.867692 5.195932 -23.791575
-9.206602 5.168103 -23.840151
-6.605143 4.218761 -21.050039
-4.953523 4.585695 -20.828961
-6.094002 3.904680 -21.111816
-0.690586 3.393923 -19.765876
-4.331855 1.783095 -21.030703
-9.795154 4.824139 -23.761938
-3.901002 3.091151 -20.124364
-6.988979 3.967397 -21.959130
0.649961 4.089240 -19.965830
-7.799620 3.111411 -23.287560
-4.513857 4.619711 -20.605011
-8.781945 4.992222 -23.545753
-2.938256 3.314452 -19.937310
-7.414124 5.873681 -22.968031
0.849371 3.625485 -19.816507
-5.273346 1.635077 -21.169864
-6.176529 3.849021 -21.353230
-4.717138 5.189884 -20.626954
-5.192183 5.429148 -21.275985
-8.064091 3.228441 -22.776320
-8.653835 5.629238 -23.314503
-2.613127 3.960874 -19.921483
-6.707268 4.062497 -21.740454
1.292429 1.655173 -20.612103
-2.894601 2.877475 -19.859462
-6.850556 5.153754 -22.004730
-7.544630 6.188908 -22.922080
-1.261355 2.797188 -19.717948
1.410376 2.056470 -19.801155
-3.892002 4.539120 -20.383175
-8.459832 4.767277 -23.287400
-7.289934 3.110443 -22.259914
-1.846193 2.990537 -19.738622
0.205596 4.243128 -20.076081
-4.095374 2.502768 -20.423435
-9.351622 6.221750 -24.181392
-5.987523 4.704335 -21.330939
-3.410466 5.314456 -20.544897
-10.116195 6.290622 -24.670795
-5.523764 4.866907 -21.142216
-9.133258 4.330765 -23.847650
-8.666638 -1.290903 -21.701990
0.991357 1.918454 -19.832116
-1.973267 3.757249 -19.776970
-3.886257 3.900266 -20.249087
-1.792216 2.062416 -19.800167
-5.199257 -1.057095 -19.579990
-9.782175 1.355993 -22.378404
-8.050944 -0.388807 -20.770906
-8.589906 4.158159 -23.197087
-8.026954 -1.583804 -21.183759
-3.232770 2.420693 -19.981435
-0.471319 2.923279 -19.681285
-3.319372 2.921313 -19.988256
-7.523301 0.256930 -20.689163
-10.487278 -0.645383 -22.720709
-2.187452 4.291713 -19.920488
-1.993757 2.344797 -19.703530
-10.242856 5.099070 -24.640664
-4.640289 4.023530 -20.542590
-3.683578 4.554832 -20.342504
-1.112357 1.974123 -19.880824
-8.009418 -0.981591 -21.123365
-6.094702 0.556591 -20.441139
0.475567 2.833634 -19.560364
-3.391062 4.408556 -19.718541
-7.978041 -1.982747 -21.188368
-6.604127 -0.001040 -20.209581
-8.696495 -0.733484 -21.334889
-7.442267 -0.910722 -20.621103
-9.018571 0.782790 -21.073898
-2.524099 4.148301 -19.897022
-9.425615 2.100635 -23.866469
-6.486485 -0.943671 -20.166158
-5.455451 0.887487 -21.474262
-4.716715 2.836755 -20.628945
-10.212457 0.433057 -22.131581
-6.731996 3.308218 -21.757062
-5.523196 0.200795 -19.313529
-10.366586 0.826070 -22.503673
-0.453902 1.322895 -20.174824
-10.636218 1.516087 -22.972811
-7.313067 1.054844 -20.699470
-6.156091 -1.534272 -19.949558
0.761379 4.066850 -19.901019
-8.990546 1.945655 -23.343635
-9.238759 -0.036688 -21.444543
-11.633349 1.539926 -24.573512
-7.080680 -0.011897 -20.430865
-5.643034 1.911606 -21.242576
-8.309273 1.126568 -20.984413
-4.805677 -1.242059 -19.349663
-10.059581 -0.502663 -22.166347
-2.080446 2.192128 -19.829177
-8.280966 1.613946 -22.860559
-2.115323 1.278902 -20.164837
-10.765879 1.052545 -22.863099
-6.120688 -1.108016 -19.939820
-7.876119 -2.505557 -21.141264
-8.914246 1.458844 -22.253710
-10.970599 1.349755 -23.166593
-9.378499 1.310538 -22.245508
-7.486462 -0.673734 -20.581843
-8.587523 -2.626873 -21.887001
-9.770395 0.952993 -22.143663
-9.212450 2.340202 -23.940594
-6.356421 4.910639 -21.671972
-11.080154 6.694474 -25.691150
-9.553165 5.852619 -24.271997
-11.313719 5.468444 -23.583496
-10.994498 3.929495 -22.045534
-5.153463 4.173487 -20.947433
-8.223973 2.679837 -21.704158
-5.943339 3.216642 -21.763063
-4.333046 1.757789 -20.736459
-10.158856 4.814657 -23.159184
-9.576405 5.073221 -23.296666
-9.652621 5.618792 -24.329369
-3.001363 3.831629 -16.900000
-9.452001 5.298435 -24.110763
-4.849774 3.220797 -21.231596
-6.638266 4.027611 -22.212870
-4.713276 3.274726 -20.167655
-2.738097 0.926058 -19.921266
-5.547963 5.757915 -20.907090
-7.532672 4.361985 -22.812319
-8.848310 4.576227 -23.126992
-3.277104 0.809374 -20.352728
-6.272079 2.821684 -21.668490
-4.592712 4.706240 -20.460108
-9.609347 4.158414 -22.563392
-2.708988 2.357757 -18.678492
-7.349957 5.798646 -23.764086
-3.358272 3.197692 -18.062109
-3.544362 3.388127 -18.943719
-6.455462 4.345281 -21.489936
-10.411401 6.563190 -25.447065
-3.723542 3.809805 -18.259107
-3.029989 1.801319 -20.055161
-5.937841 7.472335 -25.224507
-6.467421 3.623298 -21.828213
-11.650793 4.943169 -22.123595
-8.243056 4.006292 -22.877696
-4.574618 5.434279 -18.977458
-11.487644 3.694683 -21.322229
-4.014637 4.470631 -18.619771
-5.535751 5.534428 -20.570948
-3.535881 4.099160 -18.044132
-3.221902 2.879636 -18.167340
-4.170347 4.651813 -17.564580
-9.660972 3.532588 -21.853792
-7.030265 4.810971 -22.483964
-4.391965 4.364992 -19.630446
-4.101396 2.504387 -20.511832
-10.909686 3.996199 -22.113560
-3.569679 2.859812 -19.514541
-10.852709 3.414078 -21.582726
-3.040450 3.380092 -17.908159
-5.945931 6.421859 -23.777579
-3.763638 -2.549376 -20.946336
-5.668203 6.394390 -22.359678
-5.560199 5.782602 -20.890968
-3.647828 1.199036 -20.822815
-9.392357 6.063468 -25.218453
-2.982770 3.259558 -18.169327
-2.481561 3.178588 -17.317267
-6.039136 2.970346 -21.574559
-6.860664 2.783335 -21.392704
-7.433234 5.033877 -22.786391
-7.420451 5.765763 -23.911728
-4.280722 5.028886 -17.281668
-3.569683 4.400559 -17.520749
-8.145347 4.886675 -22.775075
-5.454642 3.440113 -21.429486
-3.508603 1.931333 -20.658773
-7.487952 6.388061 -25.071117
-10.723438 3.959733 -22.140200
-3.551616 3.965014 -17.336029
0.931666 -4.872790 -25.704809
-11.173154 4.798419 -22.719813
-5.230883 5.067847 -21.051324
-3.855235 -1.181051 -22.591611
-3.226377 4.072751 -17.082692
-11.457963 5.958687 -24.327705
-10.555096 -0.298563 -21.528150
-10.620190 5.009037 -23.431281
-3.158844 2.523593 -18.817926
-2.693454 -3.224814 -23.977609
-2.433691 2.112215 -18.970051
-4.120120 -0.558871 -22.919108
-9.258796 -0.765188 -22.480000
-10.058426 6.293642 -24.992888
-10.293855 0.666583 -21.402168
-5.942363 7.089738 -22.610680
-9.091931 0.021705 -22.016999
-5.592440 -0.759349 -22.662804
-10.320298 0.175054 -21.661329
-6.415753 1.130786 -22.332035
-6.562329 -1.937570 -22.816936
-0.548843 -4.417080 -25.071341
-4.079582 4.504519 -18.787251
-5.738022 5.556898 -17.188903
-3.662965 -1.595393 -22.913726
-5.582997 0.668461 -22.406597
-11.081256 0.057426 -21.384903
-5.810111 7.020163 -22.227736
-8.048217 1.006527 -22.604618
-3.955174 -2.519376 -19.802988
-7.419234 -2.870981 -22.866422
-4.618829 4.937322 -19.713117
-10.469354 1.917378 -21.986164
-8.910716 -3.130892 -25.020520
-10.784712 1.276547 -21.505559
-2.358248 0.911645 -19.523745
-6.652507 1.971573 -21.702641
0.035000 -3.322772 -23.846975
-3.849140 -2.142793 -23.077217
-8.044361 1.739259 -21.214869
-5.215555 -1.883293 -22.879666
-5.309036 -2.895026 -21.516816
-7.273558 0.651709 -22.710994
-7.645206 3.819880 -22.622023
-4.250432 5.018128 -18.179927
-5.959398 2.078211 -21.741829
-10.156915 5.785722 -24.284894
-7.002126 1.318513 -22.329670
-7.145660 4.262124 -22.169010
0.166575 -2.298025 -22.979474
-11.507675 4.484548 -21.861114
-5.527329 -0.301890 -22.833460
-7.362518 2.351539 -21.377984
-6.563722 0.184393 -23.088494
-7.272605 -2.912244 -21.725613
-5.647153 6.402899 -21.253169
-8.173129 -1.183151 -22.575389
-10.735068 0.634283 -21.506361
-11.088622 1.731046 -21.618377
-8.000942 -3.234510 -23.382746
-1.610823 -3.696108 -24.422368
0.605738 -2.442326 -22.568129
-8.690457 1.403249 -22.369353
-11.805665 -0.068421 -20.804915
-0.176878 -2.511131 -23.947945
-8.146371 -0.468105 -22.160328
-9.879117 -0.536909 -22.027926
-3.560633 0.348494 -21.212224
-11.684572 0.837668 -21.061116
-8.948505 0.006655 -20.670618
-8.584760 2.499295 -22.488984
-9.017359 6.277213 -23.672230
-5.083360 5.024842 -20.777746
-5.450902 -1.342956 -19.993445
-9.075438 5.179397 -22.746078
-6.397123 4.206314 -21.611437
-5.983153 3.880725 -21.377102
-3.903373 1.631290 -21.810968
-10.332992 4.789649 -20.042594
-3.909685 3.094353 -20.109552
-5.216169 1.598562 -21.297595
-5.401367 5.144875 -19.331470
-8.772628 5.613724 -22.785007
-8.591785 0.253174 -18.928940
-7.810753 -1.898089 -21.937183
-6.564544 -0.616226 -23.570423
-0.407325 1.799489 -20.743873
-7.947713 -1.040003 -21.322896
-9.096114 0.886076 -20.706757
-5.536759 0.190683 -19.284232
-5.903824 -1.806926 -20.501857
-6.157476 2.124208 -20.087678
-6.333055 -0.899361 -19.449139
-9.241004 2.369211 -23.809432
-9.527663 5.866182 -24.453485
-10.872085 3.857410 -23.550516
-6.260765 4.252057 -18.672417
-7.811946 2.484314 -23.274953
-6.227735 3.293892 -21.076373
-4.193074 1.706621 -20.992364
-10.169168 4.814204 -23.095926
-9.701233 5.055818 -22.530676
-9.731683 5.592161 -23.803622
-0.892131 3.638982 -19.316391
-9.560030 5.276014 -23.446290
-4.772283 3.212167 -21.392402
-6.743099 4.049256 -21.925846
-5.505615 3.421084 -18.715488
-1.038985 0.260396 -22.352348
-6.609009 5.589723 -18.606971
-8.023299 4.394934 -21.114743
-8.687105 4.578559 -23.927603
-3.616458 0.946436 -19.819664
-6.217863 2.802586 -21.810590
-5.798273 4.702587 -18.238716
-9.602396 4.156536 -22.618451
-1.948660 2.153836 -19.659133
-7.855381 5.686002 -21.982908
-3.632506 3.384257 -18.812144
-5.889403 4.329633 -22.977775
-3.860101 3.823361 -18.067840
-2.270564 1.566180 -21.187241
-6.633537 7.169963 -23.154343
-7.118105 3.740922 -20.094626
-8.475706 4.044811 -21.932034
-5.037303 5.389763 -18.216102
-4.594461 4.485307 -17.754144
-6.488863 5.414975 -18.556007
-3.387083 4.089182 -18.244265
-2.507012 2.737589 -19.106204
-4.137852 4.651516 -17.609731
-9.587506 3.499286 -22.300462
-7.081021 4.826711 -22.340081
-3.579277 4.330059 -21.008482
-4.387149 2.580203 -20.015865
-10.804967 3.943111 -23.332356
-3.806143 2.908979 -19.155741
-2.487937 3.290489 -18.600548
-6.714321 6.213355 -21.662553
-3.572450 -2.709967 -21.276410
-6.687018 6.132977 -19.888887
-6.617544 5.610839 -18.597265
-3.013817 0.944838 -21.891986
-9.494944 6.016555 -24.560938
-2.095639 3.124290 -19.304577
0.149754 2.776378 -20.284516
-6.635715 3.132797 -20.117611
-7.155417 2.885309 -20.576414
-7.444829 5.032932 -22.754038
-7.890785 5.662675 -22.216442
-3.900436 5.045393 -17.804896
-2.974904 4.381411 -18.288527
-8.496976 4.869683 -21.385512
-6.325280 3.597621 -19.501515
-3.336015 1.877867 -20.942678
-7.853222 6.260558 -23.649113
-10.618723 3.910428 -23.216749
-2.551103 3.880557 -18.603807
-3.367216 -1.777778 -19.376663
-11.097257 4.806317 -23.861460
-6.350994 5.007110 -18.708588
-5.877843 0.206722 -18.672848
-1.735556 3.972767 -18.862789
-10.484612 -0.503368 -22.154286
-10.577640 5.017863 -23.888163
-2.592449 2.389924 -19.597228
-2.898243 -3.052413 -23.599894
-0.462352 1.600033 -21.513155
-5.512617 0.324171 -20.078903
-9.443393 -0.440324 -21.498325
-10.101958 6.264629 -24.645783
-10.188304 0.465249 -22.218768
-6.748331 6.786807 -20.541410
-9.075721 0.007666 -22.107090
-10.333080 0.197369 -21.572690
-6.913398 1.430247 -20.974848
-6.835299 -1.622194 -22.029660
-4.776010 4.519447 -17.725215
-5.634292 -0.177691 -19.105906
-5.901639 0.858872 -21.641886
-11.063026 -0.015644 -21.631582
-6.689781 6.705436 -20.066493
-8.441011 1.344184 -21.099256
-3.428878 -2.972681 -20.658929
-7.347111 -2.980326 -23.111150
-5.723117 4.900754 -17.778594
-10.553680 2.039997 -21.281254
-10.833361 1.379136 -21.039070
0.508384 -0.172939 -23.353703
-6.611461 1.951603 -21.818175
-3.360907 -1.138230 -18.994093
-4.416482 -1.683132 -21.947968
-8.065695 1.752330 -21.145282
-5.633540 -1.495084 -21.899187
-5.208226 -3.002939 -21.737647
-7.760765 1.041004 -21.119249
-8.028198 3.890463 -21.281528
-4.417789 5.011322 -17.932154
-6.184937 2.170484 -21.193384
-10.201036 5.764674 -23.932322
-7.381395 1.558268 -21.182171
-7.757335 4.311732 -20.286035
1.300365 -2.927699 -24.502883
-11.424512 4.462724 -23.546047
-6.005494 0.050100 -21.664000
-7.398718 2.367652 -21.271550
-7.104119 0.607487 -21.504608
-7.148973 -3.097901 -22.106555
-6.666634 6.140703 -18.957736
-8.335627 -0.953064 -21.935051
-10.665326 0.464804 -22.211421
-11.102678 1.758233 -21.469634
-7.676855 -3.826066 -24.670127
-1.440076 -3.824517 -24.713155
2.574530 -3.523240 -25.060191
-8.752128 1.464040 -22.103023
-0.352998 -2.402406 -23.691752
-8.465153 -0.075087 -20.943709
-9.865919 -0.567793 -22.119875
-2.690880 -0.081054 -22.702619
-11.612151 0.386801 -22.850686
-4.067486 3.856873 -19.888204
-5.779509 3.973570 -21.071523
-5.303687 2.562063 -20.939758
-1.658774 3.276038 -18.512422
-0.427553 1.757945 -18.302922
-8.494135 2.457437 -22.840786
-3.905401 3.517657 -19.867524
-10.812550 5.647274 -24.105053
-1.876238 4.993563 -18.969169
-2.981230 0.930485 -19.612213
-7.578895 3.303714 -22.394067
-6.880625 5.691442 -22.116453
-9.714788 4.834506 -23.530515
-5.067842 4.662327 -20.607693
-10.047646 4.796673 -23.759827
-4.418662 -0.396391 -19.356954
-2.305603 3.773526 -18.784278
-5.144413 2.513415 -20.887575
-0.943507 1.618691 -18.618236
-4.600001 5.151235 -20.374031
-3.127930 3.567180 -19.279328
-3.927694 3.674645 -19.893419
-1.446414 2.872406 -18.385653
-2.822171 4.171426 -19.052911
-3.158794 1.853473 -19.634317
-2.670352 3.519915 -19.861142
-10.465220 6.534502 -24.292484
-1.928460 4.635024 -18.831077
-10.227411 3.506857 -24.017847
-9.868600 6.540887 -23.942584
-5.139396 4.476537 -20.694613
-0.907319 3.778736 -17.882603
-8.813240 4.916744 -23.137373
-9.326176 4.142679 -23.437193
-4.995195 2.488090 -20.814387
-7.865511 5.708431 -22.769712
-4.359802 -0.434002 -19.441982
-11.459031 4.819417 -24.426190
-9.236688 4.341005 -23.277743
-8.244482 4.862677 -22.810625
-7.383202 3.097323 -22.251525
-3.908570 5.412582 -20.249024
-9.030471 6.467849 -23.655213
-4.093162 4.503716 -19.956427
-0.942190 2.493164 -18.285222
-5.816940 2.707285 -21.212752
-4.171464 4.232145 -19.950379
-2.515910 2.559093 -19.054018
-3.943325 2.033030 -20.210530
-2.710624 5.067491 -19.347520
-2.285172 3.346879 -18.784893
