ply
format ascii 1.0
element face 0
property list uint8 int32 vertex_indices
element vertex 1836
property float x
property float y
property float z
end_header
-0.694142 11.662 -17.9974
-27.5806 -11.129 -23.2454
3.888 8.1293 -19.8279
2.18565 -16.4259 -24.992
-4.84752 -14.5358 -24.896
9.95338 2.69396 -19.7407
-24.2652 4.11074 -19.2961
-29.9247 -1.68485 -24.6895
-19.2884 0.673768 -22.3511
-8.19241 6.42388 -16.947
-27.3615 -7.27412 -23.1521
-3.20411 3.3243 -20.3454
-3.87697 -15.6281 -24.9897
-19.3544 8.61092 -15.8669
8.2225 2.59211 -19.9183
4.42241 9.20689 -19.6575
6.08063 7.89648 -20.6661
3.54888 8.55363 -19.703
-26.9558 -12.9886 -22.4449
0.611217 9.34857 -19.148
-27.9675 -9.24593 -23.4427
10.9033 3.55231 -20.5217
5.60952 11.0337 -17.3042
-10.6139 1.23728 -20.75
-8.76937 -14.1661 -23.382
3.76706 7.64724 -19.9687
5.5752 -1.66057 -20.4265
9.78589 -2.50582 -19.807
-0.33922 11.7111 -17.4686
-3.49961 0.526428 -20.0957
-1.7951 11.789 -17.4578
-15.7686 0.648312 -22.5939
-22.2135 -2.0497 -23.2876
-3.79982 -12.8103 -24.9411
-22.4338 -10.1597 -21.7807
5.73319 4.39858 -20.4267
-1.80384 3.96895 -20.4284
-13.8971 -11.7293 -22.3758
-26.2274 -11.5947 -22.5798
10.8588 -2.66253 -20.2095
-29.1155 -6.93151 -23.9584
-9.18286 3.94982 -18.8318
-2.72888 -9.55986 -24.6295
-3.37282 -6.21656 -22.3461
12.4751 7.9633 -20.6094
-3.74044 -14.2149 -25.0214
-2.73542 6.80932 -20.8673
10.3531 11.1406 -17.3218
-20.2205 8.86032 -15.8664
-9.48514 2.44839 -19.9195
0.762757 -3.35456 -22.2773
10.1395 -3.17662 -19.8831
-1.36184 -3.30964 -21.6557
-17.9961 -10.643 -23.2116
2.13286 8.98103 -19.3676
10.8216 -5.46262 -19.7553
3.24238 10.1888 -19.2002
-28.7229 0.087671 -24.3427
-24.4777 1.66689 -23.1801
-6.59005 -15.792 -24.6948
1.57646 4.44463 -20.894
-29.3081 -9.49854 -23.9121
-27.0724 -15.6453 -23.0049
-23.2287 -13.7915 -22.5631
-0.510179 -3.30681 -21.5391
-27.9637 -5.76828 -23.7349
-22.2696 4.30399 -18.3224
6.60426 5.84504 -20.4444
-23.9261 0.0984944 -23.8951
3.17235 10.6854 -18.529
-7.93737 -14.5616 -23.5523
6.18238 8.99238 -19.913
-27.5733 -11.9356 -23.2106
2.49917 11.4461 -17.154
-23.0176 -4.0238 -23.3306
2.81648 7.50554 -19.9595
2.30124 -1.58054 -19.8227
-14.8068 9.43796 -19.1281
-9.80451 6.90948 -16.6398
-2.95179 -12.678 -25.0037
-11.2196 8.16165 -18.0996
-22.9327 -16.7198 -23.2579
12.7166 -15.8396 -23.5065
-7.8658 2.84447 -20.1833
6.24617 3.82592 -20.4938
-8.23316 7.43114 -16.5916
-7.34915 -10.6168 -22.964
-1.72657 7.5374 -20.58
13.3446 8.51005 -20.7588
9.43561 9.84554 -19.7673
1.84072 -4.38401 -22.3399
-2.9324 -13.5343 -24.9391
-10.0517 -11.4971 -22.4809
12.0267 10.0959 -20.389
-3.2939 1.67403 -20.2644
-16.111 -0.434803 -22.5751
11.43 3.13996 -20.7853
-2.06404 4.87683 -20.6273
-19.6138 7.439 -15.7265
-1.51698 11.3544 -17.8077
9.76152 11.3917 -17.5143
-0.212106 9.65835 -18.0062
0.240198 -6.00336 -21.7923
-6.89845 4.23478 -19.8326
3.73286 9.73376 -19.3527
7.49374 9.92961 -18.5685
12.2454 -1.75848 -20.4018
-4.28477 -5.03245 -22.5142
3.96215 10.6501 -18.5398
-8.36859 -2.6209 -24.265
-17.9709 8.52549 -18.6571
-6.83734 -10.4809 -23.8797
-24.955 -3.58809 -23.2302
-27.1634 -2.88311 -23.2759
-17.1969 -1.69423 -22.7464
-23.0515 -9.82309 -22.431
11.6663 0.137755 -20.0825
6.83007 8.15694 -20.3844
-10.4981 -13.75 -23.9539
4.25812 8.48519 -19.8722
0.891874 8.21875 -18.8445
-2.30954 -16.5512 -24.9711
-28.6134 -1.68205 -24.2723
0.654838 -6.89208 -22.1125
4.02395 10.2812 -18.9767
-17.5519 9.23167 -18.1029
-2.83718 -2.41727 -20.5434
0.78197 1.28008 -19.6348
-7.79831 4.32215 -18.4751
-9.35621 -11.1159 -22.2499
2.21377 -0.762696 -20.598
-21.3005 -10.2881 -22.0681
-29.0771 -13.0712 -23.654
-6.20788 -14.6471 -24.7832
1.44871 -17.1302 -25.0945
-15.7806 -1.95503 -22.8152
4.85293 0.484312 -23.3609
13.0808 -5.4902 -21.5461
-5.14584 -0.942462 -20.0296
1.0159 5.00473 -20.6081
-20.613 0.872616 -22.8682
-7.96716 3.587 -20.085
9.8888 10.972 -17.7583
14.3779 -15.8228 -23.7227
-8.38403 -16.4658 -24.8705
-28.2224 -8.32514 -23.6476
1.23507 -5.29203 -22.2004
-1.31879 -13.207 -25.0218
12.1726 10.1763 -20.3639
-25.9409 1.59704 -22.6699
0.792914 9.98738 -17.5437
-20.3718 -1.34336 -23.6555
-8.3511 5.69276 -17.0199
7.09581 9.77795 -19.3739
-22.1135 -5.77069 -22.7263
-15.4606 -11.6209 -22.8811
-18.9472 7.38321 -15.7295
0.921619 11.6205 -17.4352
10.9095 8.70112 -21.6684
-10.6168 12.0679 -17.0365
1.08835 -0.304906 -19.7205
8.63888 8.48821 -20.3148
-9.46839 -3.04604 -22.9142
-0.195003 -0.404284 -19.8408
-3.2786 3.8602 -20.5989
-15.3286 -0.531708 -22.5995
-23.8766 -3.55862 -23.5848
-29.9206 -2.90877 -24.555
6.75347 -3.47473 -20.7078
11.1935 -1.55059 -20.1836
4.12505 11.4284 -17.0091
6.74084 3.27439 -20.4311
-2.46216 -7.79462 -22.4153
6.8576 4.16871 -20.18
7.56557 2.98544 -20.0809
-17.8736 0.354435 -22.034
8.93772 -0.756367 -20.5965
9.54578 3.15611 -20.153
-9.00072 4.70619 -18.2513
4.10857 8.45552 -19.7484
8.03855 -0.833382 -20.7076
1.14534 8.94133 -19.0426
8.58167 5.7777 -19.987
4.64604 10.7332 -17.1009
10.5114 -0.748386 -19.8076
-28.8976 -14.9771 -22.4342
-3.90298 -1.07765 -20.3282
8.29241 3.17068 -19.917
6.11093 10.3272 -16.9076
1.48359 -7.23111 -22.2935
7.35713 10.1983 -17.8761
-21.1533 -14.5848 -23.1786
7.8433 4.94225 -20.0806
3.99103 10.5662 -17.7834
4.38245 11.3397 -18.0115
-0.404086 10.4295 -18.0897
8.05831 11.0878 -16.7905
2.00036 9.75336 -18.9055
13.7974 -16.6157 -24.0863
8.88043 10.9141 -17.3311
11.5103 -16.8534 -23.766
-15.2261 10.659 -17.8568
6.75786 -2.16593 -20.8957
-17.0736 11.1755 -17.2255
0.929624 -3.43317 -22.6435
-17.7964 0.400571 -22.8024
-16.0686 11.078 -17.1388
12.2157 -16.4708 -23.7315
6.54776 10.1983 -17.5095
-22.644 -12.4422 -21.7794
2.49429 -0.0199259 -21.4463
5.62792 2.4777 -20.1419
-3.38097 -2.69468 -20.7282
-3.23028 11.2229 -18.2785
1.7226 8.33653 -19.4944
-27.4324 -9.32637 -22.8769
9.62626 -0.677173 -20.017
7.27906 10.4958 -16.7974
1.40799 -6.57276 -22.5997
-21.6731 -13.7604 -22.1507
-27.6775 -0.971551 -23.6776
4.7648 11.1063 -16.89
9.3435 -2.05522 -20.1576
-1.52893 -6.46149 -22.05
-23.1022 -13.9052 -22.2215
-26.9905 -11.0909 -22.5564
-20.1235 0.838962 -22.73
-0.235515 12.132 -17.5693
2.79683 7.95491 -19.4943
-28.9764 -1.82268 -23.8543
-0.623705 10.2051 -18.4673
-19.5473 8.70899 -16.1462
-2.22269 11.3706 -18.4169
-3.15599 3.54304 -20.8878
-28.5521 -6.59847 -23.4621
-28.8797 -0.979747 -23.8749
2.03529 7.7499 -19.7012
-4.87673 -14.7619 -25.0734
-23.7749 3.9991 -18.8497
-4.46154 -6.04105 -23.3688
-8.77326 2.66003 -20.2957
5.61941 4.21864 -20.2682
9.77313 -2.49277 -19.6887
-0.482108 9.1228 -18.6403
-1.61395 11.8099 -18.013
7.75504 -2.21268 -21.2936
-25.4816 -11.3716 -21.9247
3.80436 11.0691 -18.4743
-23.3792 -15.3397 -22.4836
5.41935 10.9094 -16.9988
-9.31884 4.04497 -19.1207
6.42522 10.4523 -16.8304
-15.7414 0.617975 -22.6771
-9.32034 -2.1461 -22.8268
10.2825 5.46222 -20.297
10.8639 -5.46551 -19.898
-2.85212 12.1124 -17.413
2.2919 9.05344 -19.4271
10.4853 -2.37663 -19.784
-24.0791 4.60803 -19.0304
-1.8223 -3.26118 -21.6781
7.84448 10.3367 -16.8864
9.68368 5.96509 -19.9604
-1.5669 11.3332 -18.323
-0.618231 -3.32857 -21.5758
10.9624 4.30567 -20.3842
0.301182 10.0026 -17.8834
-11.3285 -2.11462 -23.7981
-20.2741 3.66699 -18.1266
3.44883 9.99183 -19.1263
12.9395 -16.0517 -23.8516
-21.2858 -0.15629 -22.8048
-20.155 8.83955 -15.9547
-22.5634 -2.71823 -22.9442
-6.33294 -2.09718 -24.8132
-14.7701 -12.6112 -24.2114
-5.94535 -1.77855 -24.8251
-6.70485 11.4935 -18.3571
-3.12039 1.799 -20.677
-11.191 -16.1617 -24.1582
-0.479806 11.5968 -17.8072
1.10712 6.89257 -20.7956
-29.5217 -4.29107 -23.8715
-2.88995 -9.97675 -25.0844
9.85188 -3.19627 -19.6571
2.32638 11.5384 -17.1684
-21.9223 -14.5815 -22.3311
-28.622 -9.13389 -23.2343
-9.89001 7.203 -17.3429
-20.9583 0.954049 -22.8642
-8.44197 -2.67798 -24.0465
-2.795 11.707 -18.2082
-4.602 -4.51179 -22.5155
-8.79734 7.13346 -17.0398
-1.64855 5.04927 -20.9602
-4.92884 1.0396 -22.884
-18.812 -9.94997 -21.5079
-27.4629 -5.75123 -23.2251
-20.7049 -1.28902 -22.6159
-21.5091 9.42212 -15.8293
-14.2405 -12.9165 -24.4367
-7.60962 -3.87159 -25.1577
-20.75 9.25242 -16.03
-8.83086 7.76706 -17.0109
-18.2276 -10.4058 -22.6847
-20.805 8.38311 -16.1234
-7.52642 4.58973 -20.6386
-23.63 1.54518 -23.4513
2.98015 -2.61505 -22.3599
-10.7259 6.92025 -15.9782
7.54246 8.37558 -20.4642
-16.0438 -0.301592 -22.2489
-10.7506 12.5637 -17.5261
-17.0595 8.83109 -17.2911
-19.5713 -7.15963 -21.204
-13.2548 11.5923 -17.2328
-10.7369 -14.2391 -24.4191
-29.021 -10.8984 -23.1404
-5.83017 -3.72369 -25.7731
2.96443 7.4719 -19.9518
-23.4739 -3.78453 -23.1243
-13.8567 -2.19864 -23.4851
-25.6684 -3.21038 -22.8285
-17.7818 -1.96329 -23.8846
9.21854 9.5517 -19.3093
-0.343819 -6.72262 -22.4474
-27.5696 -10.4296 -22.8025
-15.952 -14.1092 -23.6327
3.97326 10.3911 -18.781
8.624 8.27933 -19.8359
0.124891 9.72039 -18.2596
-1.77597 -1.98352 -20.8901
-2.12771 -0.45056 -20.624
-23.9853 -13.4872 -22.0954
-14.0372 8.69712 -19.4071
1.80802 -4.20997 -22.4643
-6.95479 4.23127 -20.5582
-11.7428 -10.9817 -21.9436
11.145 -16.0358 -23.6368
-9.02491 6.98576 -17.0593
-1.08801 1.12444 -19.9935
-21.9538 -0.952058 -22.8923
-9.9584 -14.6166 -24.2039
-29.2662 -14.1551 -22.93
5.49886 9.61618 -19.7492
-16.0503 11.31 -18.0048
0.997703 11.6162 -17.4882
-6.2873 -10.9211 -24.9189
-22.1907 -4.05365 -22.2672
-1.13987 7.61034 -20.4957
-14.3949 8.65609 -17.38
-23.9121 -0.677367 -23.008
5.00068 8.75242 -19.9448
-15.377 -0.329955 -22.0696
-8.63349 4.23721 -19.5608
-21.8426 -8.19269 -22.8821
-16.8624 1.32276 -22.4398
9.40943 -2.53483 -20.1196
-19.5333 -1.35521 -23.1193
-2.81082 6.02608 -20.9255
9.63992 -1.57152 -19.582
-1.97682 -6.56988 -22.0166
-16.2965 -2.00211 -23.8265
-8.38822 -16.2697 -24.7206
-17.8484 -0.66417 -22.8086
-18.7363 7.72078 -15.9178
11.7096 5.2661 -20.7072
-0.927368 4.98972 -20.1744
-10.9538 -11.287 -24.0193
-15.8922 -5.16755 -24.1258
-17.5752 -6.91441 -22.8603
10.1738 8.13821 -20.4879
-7.59154 -12.6545 -23.4962
-20.3891 1.42137 -23.0345
-9.32673 3.28913 -20.2254
-25.6773 -6.81138 -22.3225
-8.50932 3.71767 -20.4667
-1.48721 1.23131 -20.0064
2.1178 -3.48069 -23.7856
-1.26743 9.42436 -19.1223
-5.87198 -18.3783 -26.104
8.11195 5.56418 -20.964
7.65012 3.56526 -20.381
-8.02449 -18.8215 -26.1388
7.07273 5.30707 -20.9385
-1.45387 10.8551 -18.7653
-7.16227 3.27808 -20.448
9.71897 5.1942 -20.6838
7.64345 10.585 -17.8629
-5.91574 3.86438 -20.4739
8.5786 3.91729 -19.7136
4.60794 8.7401 -20.5079
7.08458 2.44741 -20.6369
7.02793 10.8032 -19.179
-2.8231 11.1522 -18.9147
-21.3463 1.14686 -22.1033
-16.7359 -10.6016 -23.1275
-3.77347 -1.07713 -21.1056
-1.39666 -17.6953 -25.6136
6.73651 4.38167 -20.4312
-10.189 2.2361 -20.3732
-11.0973 11.7728 -17.6881
8.3049 5.06134 -20.3349
1.9655 9.92841 -19.1592
-17.7032 0.356181 -22.2134
-21.817 -0.120225 -22.3276
-7.89708 11.4992 -18.8877
-22.3496 -12.3894 -21.4978
-4.45622 -8.57267 -24.8639
-21.038 -14.3988 -22.9411
9.50375 11.5812 -17.9852
6.26821 3.56128 -20.6551
8.84556 2.64489 -20.1482
8.31214 3.10549 -20.1754
11.5326 -16.8681 -23.8063
-1.45068 -16.9672 -25.8355
-3.67227 -1.92399 -21.2724
1.77998 7.68275 -19.3427
-4.33208 -8.00771 -24.6752
-21.0679 -17.035 -26.6917
10.3201 -16.1486 -23.9867
8.22189 5.93585 -20.3538
1.5411 -6.68133 -23.1617
2.30047 8.81992 -19.8893
-26.7465 -14.9786 -21.8335
-27.8477 -1.54878 -22.5069
-17.428 -14.2274 -23.7642
3.40703 9.41256 -19.5988
12.4147 -16.928 -23.8996
3.46667 11.3251 -17.6218
-24.6587 1.68917 -22.2977
-21.8424 -13.7198 -22.4295
6.8125 10.5738 -18.0247
7.60515 -1.02432 -21.243
6.17197 5.14721 -20.7286
5.9584 1.88641 -20.8372
-25.6991 -15.7005 -22.1148
6.07985 1.16714 -21.096
4.44747 7.82777 -20.6797
-26.2236 -8.79704 -21.5965
-1.67589 -8.54294 -24.5409
-2.06233 11.5354 -18.8357
-0.504433 12.6108 -18.0986
-30.0017 0.54807 -22.7663
10.7198 3.57107 -20.2799
-16.8722 -18.0179 -25.7849
11.1815 2.5408 -20.3573
-23.0241 -14.934 -22.0458
-27.5525 -0.592805 -22.5018
-3.229 -6.56466 -23.3918
-4.36608 -6.53676 -24.0896
8.96593 -2.05632 -19.6957
-1.49123 12.1302 -18.2807
2.47464 0.0218208 -21.2762
0.113736 -8.13413 -22.4201
-3.08329 11.7092 -18.6922
-29.8024 -0.288796 -21.949
3.54894 8.57887 -19.7413
0.562661 10.4076 -18.4287
-3.86303 -3.66187 -22.2088
-2.39736 12.5119 -17.9326
10.0651 -2.46961 -20.1071
5.84204 4.38258 -20.7103
-3.41942 0.138442 -21.1481
-27.4071 -6.3814 -22.2171
-1.69338 4.12312 -21.187
-9.32721 4.14199 -19.782
-0.841532 10.6417 -18.8583
-30.4433 -0.638902 -24.0948
-10.6011 1.20033 -20.4702
1.45617 9.70125 -19.1962
-18.9013 0.578756 -22.2056
3.35953 -2.68014 -23.0535
4.65785 9.42202 -20.072
-1.82466 -6.23472 -22.6398
-23.135 3.66327 -18.1818
-4.88585 -16.2756 -25.1713
9.50238 -1.48759 -20.7171
-22.8755 0.0516597 -22.5507
-16.3326 -15.7507 -24.4357
-3.92974 0.928101 -21.1545
-3.76886 -13.5475 -25.4415
-3.75103 -14.4606 -25.6304
-2.70044 -9.93019 -25.4444
-22.7697 1.48633 -21.1908
-16.3526 0.256545 -22.1783
3.9906 11.2146 -18.6081
-21.9514 -1.95795 -22.9829
6.50968 -1.41902 -21.0198
-1.59329 -3.38018 -22.2708
11.0402 9.54196 -19.8358
-22.3999 -8.25153 -21.7616
10.3027 5.50806 -20.2946
-22.4025 -13.2306 -21.6168
3.37274 -16.8927 -25.6973
1.66683 4.6819 -21.2455
-7.98333 2.97695 -20.7305
-7.11562 -10.7798 -24.4817
-28.5621 -4.05357 -22.623
8.88453 5.142 -20.2562
-3.75941 -16.0136 -25.5491
3.63132 11.108 -18.7968
-0.00493212 -17.0976 -26.0397
-10.5315 -14.1508 -24.2729
-13.4908 9.17896 -18.8619
-2.9666 -12.8231 -25.5223
-11.2478 -13.4215 -23.7206
-22.3192 -2.83034 -22.6256
-27.2173 -8.55937 -21.8047
5.09533 7.94569 -20.7471
-2.91606 12.345 -18.0346
-8.06301 -15.1693 -24.545
0.10536 7.6012 -20.7719
2.99616 9.02245 -19.9905
-1.42515 10.2683 -18.7983
-1.28066 -15.145 -25.6473
6.77396 5.93749 -20.4861
3.00341 11.6372 -17.7697
-23.7203 -3.29158 -21.7715
3.16575 10.179 -19.5756
-16.0648 -11.1134 -23.0647
-3.10724 12.1989 -18.3505
-2.81397 -14.9689 -25.3767
-22.9338 -15.5789 -22.1579
3.46552 7.60965 -20.699
11.1338 3.06648 -20.3335
3.93031 9.95588 -19.7361
6.42293 9.16442 -20.3127
10.6354 -4.52367 -20.2324
-6.50384 -3.918 -24.6924
-6.04753 -14.8363 -25.1605
1.23144 12.1177 -18.1793
-5.07569 -18.2312 -26.1337
2.63437 -1.78772 -21.1032
-9.52782 2.49433 -20.9261
0.136406 10.0196 -18.8842
-22.5566 -11.6043 -21.5705
-26.2404 -3.22754 -22.1401
-13.9059 -2.13434 -23.2194
9.06187 9.79012 -19.4433
-7.07174 4.41733 -20.4942
-15.0868 1.18147 -22.3254
-2.87265 -13.745 -25.6577
-12.2254 -11.9674 -24.099
-1.67217 1.23427 -20.9163
1.43049 -4.96161 -23.0997
8.0129 9.95748 -18.9555
-13.101 -9.7492 -22.708
-11.6675 1.06012 -21.7689
-8.46632 6.12381 -17.8876
-27.2478 -4.18262 -22.2953
-13.2542 -12.3589 -23.0528
8.26943 8.37695 -20.0294
2.55376 12.5527 -18.4278
-15.596 -1.90451 -22.5803
-1.18844 -12.1807 -25.6512
-26.9933 0.100676 -22.4674
-12.2463 12.9186 -17.9552
-10.8997 -12.3407 -24.3346
-28.7579 -11.6264 -21.9985
-25.7198 -7.76266 -21.265
-3.46783 0.547017 -20.7476
-0.11505 -6.11723 -22.3469
-20.102 -1.27149 -22.4413
-3.89679 -12.4375 -25.4563
-15.1404 -0.290904 -22.3231
-8.34287 -2.64448 -24.2491
-27.7061 -9.43474 -21.8523
-15.704 -0.955466 -22.2075
-21.4913 -19.2643 -27.1766
-8.10593 4.48317 -19.4758
-16.5517 -1.59326 -21.2251
-15.862 -14.0467 -23.5558
-12.342 -2.68659 -23.8721
-8.69683 3.86612 -20.3854
2.00417 -4.29166 -23.1632
-15.6099 -11.6715 -23.0517
-9.7513 -12.5349 -25.2016
-8.31459 -4.7764 -24.9583
-4.75167 -13.4975 -25.2281
11.5383 -16.0608 -23.8728
-18.6877 -6.78203 -19.5921
6.96721 -3.54868 -21.0643
-31.323 -3.48989 -23.4918
-4.03668 -17.0512 -25.6852
1.38712 6.07287 -21.0776
-13.7619 8.20762 -18.95
7.51912 9.83068 -19.8921
-1.23831 -13.4397 -25.6949
-1.8838 2.08625 -20.2339
-16.9826 -0.682352 -22.2078
-27.5342 -13.5108 -21.8565
-4.94351 -1.71235 -21.444
-22.6153 -10.7229 -21.3962
4.07359 10.7455 -18.9952
1.69891 1.22535 -20.7042
-1.8263 5.08855 -21.3699
-3.03549 -16.319 -25.353
-8.03589 -12.588 -24.2058
-15.5471 9.57753 -19.247
-11.909 -16.2422 -24.4778
-22.1181 -15.1992 -22.1772
-14.8852 -15.3017 -24.2719
-13.015 -4.15693 -24.2334
-27.734 -10.2135 -21.8505
-20.348 1.2901 -22.0145
-22.3286 -9.26152 -21.5157
-22.4847 -0.757866 -22.5478
-22.3144 1.21661 -22.2895
-20.9789 -7.77515 -21.5918
-3.25508 -4.40009 -22.6929
-8.78787 10.408 -18.7673
7.38257 3.5664 -19.9553
7.66086 5.13505 -20.2929
7.24597 10.317 -17.289
6.08948 2.26405 -19.2486
4.25446 8.61925 -20.1604
1.14821 9.46945 -19.3551
-1.35665 -17.8676 -26.0523
4.77412 11.0197 -17.4313
7.89919 6.18602 -20.1746
-24.1482 -15.8713 -22.9034
5.51699 10.4567 -17.9311
5.93295 9.22043 -20.2827
-0.288192 10.5984 -18.476
-17.2894 0.384092 -22.1244
8.79108 2.59075 -19.8181
-25.0721 -16.0135 -22.9898
8.40707 3.22298 -20.1324
-13.7657 1.09294 -21.3176
8.12814 3.97129 -20.0842
-0.0460303 10.9303 -17.6699
1.46079 -8.31915 -22.8661
1.05961 10.9932 -17.8436
8.21353 5.14269 -20.0591
6.15419 8.51713 -20.3748
5.98125 3.4628 -20.1908
-27.2326 1.79719 -23.175
0.0798053 -17.8101 -26.0469
-3.91442 -1.13195 -20.5747
-22.0659 -12.0295 -21.0145
-7.89716 11.0766 -18.2518
-4.44009 -8.91495 -25.6779
-2.55143 2.28709 -20.7467
-3.95983 -7.16078 -23.5316
-3.27767 11.2607 -18.3278
-1.5112 -6.40177 -21.8086
6.74013 -1.14276 -20.2559
-0.166197 -7.88986 -22.0546
-3.07521 4.33833 -20.5255
-25.894 -14.2978 -20.8905
1.83104 8.54615 -19.8102
6.32544 -2.15451 -20.2518
-0.739677 11.5699 -17.8814
3.28982 11.2406 -17.4544
-22.9966 -13.8352 -22.286
5.42722 2.32843 -19.9342
-8.48652 -14.738 -24.201
-4.88463 -14.994 -25.4228
10.352 4.29018 -20.1726
-28.9285 -4.60373 -23.2934
-24.667 -12.4387 -21.3489
-4.54873 -10.7277 -25.3677
-1.03125 -8.94558 -24.5423
-1.92719 2.62022 -20.0293
-26.1647 -6.9113 -21.8718
-1.86249 11.4407 -18.5967
9.95612 3.7243 -19.99
5.88166 10.5956 -17.6083
-25.7866 -12.3093 -21.2663
8.3988 2.60436 -20.1868
-25.3368 -9.48461 -21.4311
-19.1034 0.641327 -22.2683
2.42323 -16.9046 -25.7445
6.74145 10.4279 -17.8154
-4.47964 -6.68378 -25.0047
-2.64113 -3.10449 -21.3868
-3.62696 0.0277007 -20.6434
-26.0282 -8.69453 -21.421
7.44953 11.0949 -17.3614
-24.0414 -10.5411 -20.2517
9.65755 -2.50353 -19.6191
2.53047 8.57093 -19.6662
6.43062 8.13066 -21.1922
4.01057 7.78214 -20.4833
-2.8672 11.6391 -17.8323
-25.1637 -0.588658 -22.5536
-0.537663 10.3413 -18.7607
-3.98905 -16.1387 -25.7532
10.1098 2.7357 -19.9257
-26.1115 -10.5093 -21.5874
-1.39333 -3.38218 -22.3861
8.24149 10.6788 -17.4324
-1.79144 3.94292 -20.3835
-16.9973 -18.9804 -26.8831
4.1245 9.5371 -19.76
-6.27951 -2.1546 -25.5716
-9.16251 3.95229 -18.9837
-1.59637 11.9156 -17.9515
-4.95852 0.957061 -23.5423
-2.85551 -13.321 -25.5468
-9.31461 2.33504 -19.5595
-0.377159 9.29275 -18.9397
-20.9762 -0.248109 -22.1394
-11.4485 -2.23652 -24.9143
-27.6712 -8.18628 -22.1884
0.205443 9.93561 -17.7176
-27.1632 -6.38821 -21.9246
5.59911 11.1224 -17.3333
-12.8307 -12.9915 -23.8624
3.41482 -2.7411 -23.0616
-16.432 -16.0623 -24.7711
-8.79747 5.09898 -17.9898
7.07986 -2.31165 -20.3881
9.02786 -1.36153 -20.0587
-2.58649 7.07412 -21.6321
3.48934 11.0127 -18.6944
-14.3864 -12.2366 -23.415
4.07773 7.6936 -20.4303
12.4825 -15.7983 -23.2905
3.08482 10.1408 -19.5248
-0.120502 -3.64007 -21.9927
-10.3727 -14.0941 -24.0189
3.89519 11.1934 -18.6176
3.52541 -17.2349 -25.8456
-3.23989 -7.15237 -23.1733
5.66027 -0.344352 -20.2353
10.5314 4.66345 -20.3305
-26.2868 -15.2004 -22.3875
9.50813 9.674 -19.6396
10.4468 4.05208 -20.1787
-4.62786 -4.88988 -23.5279
3.16642 7.51249 -20.412
-2.83065 -8.29341 -23.519
-14.8586 -12.1074 -23.4343
5.35666 8.14522 -20.3451
1.24803 7.10481 -21.279
0.479665 -6.94243 -22.4365
-6.14785 -10.8448 -24.8166
-8.12253 -14.9602 -24.2809
-14.5055 11.4383 -17.3934
-20.9649 -1.13201 -22.2326
-3.03644 12.0011 -17.5521
-3.64116 11.4694 -18.2478
10.6208 6.07172 -20.5348
-3.07111 -14.1728 -25.6477
11.0653 -15.9308 -23.3396
0.141751 7.72158 -21.0339
-21.9683 -9.09558 -22.0709
0.852505 1.24685 -21.1539
-6.87936 -10.2233 -23.1134
-23.3292 -3.63539 -23.1106
2.24535 9.35696 -19.7045
-15.3909 -0.205217 -22.3764
0.437269 -8.07127 -22.2353
-31.2282 1.28514 -23.28
2.42046 -1.74314 -20.6939
-16.6508 -14.6836 -24.3942
-19.9772 -7.37865 -21.8161
-3.00309 -16.8202 -25.8479
-3.7058 -12.4412 -25.3479
-24.1846 -3.37338 -22.8231
4.98909 8.79567 -20.1117
-22.5135 -15.0452 -22.5223
-10.0864 7.97842 -17.8704
4.0774 10.4841 -19.0489
0.382394 -6.20397 -22.497
-19.4953 -1.40717 -23.2705
8.4156 8.53844 -20.4155
-8.15962 -12.1201 -23.52
-27.0593 -9.55185 -22.002
-1.1956 -13.8152 -25.7552
1.17771 -4.07613 -22.6348
-17.9965 -0.663773 -22.7747
1.23201 -6.25488 -22.6186
-4.97309 -18.0276 -26.0861
-8.67146 4.10825 -19.1667
-1.65084 1.20611 -19.942
-7.4032 -4.60834 -25.3047
-2.75493 -4.3914 -21.6692
-19.066 -10.8672 -23.6435
-16.5862 -1.90757 -23.3767
-15.7739 -11.4241 -23.3783
-7.70314 4.39821 -19.2665
0.128763 9.79067 -18.7119
1.41662 -5.43739 -22.631
0.336168 5.11306 -21.0102
1.23167 8.414 -19.6199
-3.03598 1.74744 -21.2943
-5.23796 -4.66975 -24.9347
-21.3297 -7.92377 -21.964
-1.18267 1.2246 -19.833
-8.25765 3.66369 -19.7472
-29.6959 1.87466 -22.3237
-6.91456 -2.62242 -25.562
-27.4267 -7.09907 -22.1022
-28.6981 -5.42087 -22.903
-13.9736 -2.4264 -24.2
0.73566 10.298 -17.7827
-13.7614 11.7056 -17.5561
9.30779 -0.5255 -20.2151
7.17528 8.38765 -20.5672
-22.1518 -16.0768 -23.0969
-10.4902 -11.6691 -23.0092
9.59197 -1.87507 -19.5814
-24.2895 -3.07938 -21.7905
1.62859 -17.6477 -25.9523
-21.5142 -0.9415 -22.3002
-26.6471 -3.66385 -22.4182
0.240459 11.6048 -17.7189
-2.28271 -2.11475 -20.5845
-1.97949 -15.3873 -25.8016
1.58727 1.1118 -20.675
7.30078 8.12614 -19.5573
-25.8263 -2.93706 -22.1795
-3.26762 -5.05221 -21.7734
-27.9423 -11.2057 -21.9381
3.89081 10.1399 -19.518
-5.87381 -18.3556 -26.0431
6.89554 3.30506 -20.6374
7.98711 3.79432 -20.7547
8.03784 3.05861 -20.7331
9.84783 3.15902 -20.475
7.78817 5.65821 -20.5928
-2.03596 -8.36559 -24.1447
7.14437 4.29863 -20.6289
9.37839 -0.742339 -21.1875
-9.08805 4.87218 -19.1002
9.18132 4.05476 -20.5252
-28.4785 -14.7233 -22.0413
-16.9458 0.316238 -21.06
-2.44753 -6.61041 -22.4362
8.40521 -0.87748 -21.2645
9.33769 6.06145 -20.9632
1.19733 9.41464 -19.5384
4.17381 8.68607 -20.2073
5.89431 10.6893 -18.4115
-24.015 -15.0326 -21.2681
-17.0028 12.1819 -17.1184
-3.60365 -1.91807 -21.4417
-29.0585 -14.6499 -21.9229
10.9355 -16.8221 -24.9939
7.74322 10.5125 -18.4212
6.22332 -3.21443 -20.915
9.35145 2.66146 -20.6369
6.23331 5.20942 -20.9138
-17.0736 11.2564 -17.3456
-3.31197 0.299554 -21.5373
7.13915 5.95681 -20.494
13.2185 -18.5666 -25.5113
1.85141 9.9497 -19.1688
-15.1969 10.5701 -17.789
-17.8161 0.33138 -21.9332
2.05819 8.02323 -20.042
6.47185 10.6325 -17.3846
-7.84729 10.9744 -18.0626
0.176722 11.2799 -18.1865
-24.3233 -16.1988 -21.9854
-1.74556 2.68068 -20.9913
-3.74827 -7.81242 -25.0205
0.367505 -8.63457 -24.343
1.98308 -7.6183 -23.6191
-28.0777 -1.57524 -22.683
6.16228 3.14794 -21.1341
4.07119 11.112 -17.6162
9.25926 4.60665 -20.4607
1.50982 -6.58632 -22.8764
6.24081 1.95864 -21.3339
-2.55998 2.17584 -21.9398
6.01944 10.6919 -17.8383
-22.3878 -13.4024 -21.2778
7.52817 -1.03653 -21.2289
3.54538 -17.2221 -26.1387
3.6265 11.1495 -18.0976
-0.761949 -6.30162 -23.2472
-0.286021 10.67 -19.18
4.28772 10.8922 -18.3493
-27.6469 -0.687241 -22.6334
3.09623 8.20908 -20.2041
-25.9582 -6.82526 -21.6559
-2.99693 3.69125 -21.7094
-22.3805 -15.8928 -21.5098
2.69809 0.0440515 -21.6464
-2.0144 11.6034 -18.9456
-32.3623 -0.386451 -24.6595
-22.566 -10.2634 -21.9892
-8.90088 -14.6079 -24.0965
-0.188295 9.50512 -19.339
-29.2529 -0.606886 -22.969
-8.20337 6.3564 -16.7382
-7.0763 -10.8655 -24.6139
-22.765 3.80623 -17.8096
0.949285 9.74537 -19.3926
-25.7147 -10.0915 -21.2539
-8.54237 2.72673 -20.1863
-9.28967 4.00206 -19.2117
-3.59973 -8.70847 -25.4037
-3.8404 -3.85407 -22.503
-1.77347 -6.25597 -22.8619
-22.6841 -14.5917 -21.3837
-16.3642 -17.9035 -25.3902
6.60625 10.461 -17.8283
-20.2063 0.862849 -22.6647
4.07675 8.99969 -19.175
-15.8515 0.557094 -22.7785
-23.5124 1.62697 -21.9791
5.7089 -1.70703 -20.6758
7.77279 -2.25893 -21.3081
-15.905 -15.0946 -23.3129
6.02495 4.31513 -21.0429
-13.1654 8.59124 -17.5003
4.99733 7.91617 -20.6241
-21.8459 -15.5703 -21.7146
2.12378 9.10242 -19.8397
-3.1025 11.6462 -18.5671
-6.38812 -2.16276 -24.733
-1.59428 11.9676 -18.2418
-3.94469 0.852038 -21.6927
9.7889 -1.49122 -21.178
-35.3659 -6.39456 -24.5046
1.53552 9.77297 -19.2975
-21.4116 -14.0394 -21.4996
-3.66163 -15.0601 -26.0902
-14.4038 -12.5911 -24.0858
-25.5834 -10.8863 -21.1423
3.45237 9.6979 -19.6795
-9.66714 2.62984 -20.6809
-2.24018 3.39328 -21.7173
-5.81251 -1.80211 -25.4552
-2.54745 -2.50564 -21.5168
0.796048 -3.37736 -22.3639
-3.73118 -18.967 -26.1077
1.74795 4.79523 -21.4054
-6.59164 -15.4353 -24.2216
3.71843 10.5456 -18.5856
-23.2454 -15.5004 -21.3877
3.43035 10.3603 -19.5862
-8.35571 7.80287 -17.3209
-15.3487 -0.366126 -22.5363
-10.5259 -13.4779 -23.2723
-8.7666 7.29476 -17.3773
-2.72514 -4.30972 -21.9356
-3.06535 -6.93843 -22.95
5.71944 -0.388964 -20.4324
0.480325 10.0293 -19.0136
-28.4501 0.124753 -24.2044
-5.85548 -3.59065 -24.775
-5.0719 -18.3582 -25.9441
-0.995344 11.6495 -18.8104
-11.5349 -12.9935 -23.1325
-21.1362 -8.84028 -21.0879
-31.2704 -0.272628 -22.3477
-6.70148 4.36664 -20.8086
-25.8801 -5.25604 -21.9675
-23.4369 -0.651445 -22.2155
-8.54857 -2.71286 -24.9709
-20.6152 -1.14462 -22.595
-15.1964 1.15186 -22.5883
-23.6744 -3.31836 -21.8494
-0.400659 -3.51968 -22.9252
10.2404 -17.2056 -25.3993
-15.7216 -13.9918 -23.1086
-15.5323 11.8623 -18.2588
-0.494885 -6.67319 -22.2842
2.2627 -5.60342 -23.5206
6.80599 9.22162 -18.8975
-11.8186 -15.98 -24.1095
-3.74078 1.91563 -22.1385
-31.9725 -3.30745 -24.0604
-20.2874 3.6916 -18.173
-24.973 -3.1213 -21.6256
-27.244 -12.9404 -20.809
-22.0386 -10.9281 -20.6914
-8.44064 3.91259 -20.365
12.1051 -17.1822 -25.4945
-3.17472 -5.02519 -23.1209
-26.887 -2.94159 -23.1571
-20.8207 3.23619 -18.1899
-1.46179 10.4244 -19.0859
-27.1766 -6.90062 -21.7283
-12.6297 -11.3666 -21.9753
-2.9465 -8.78911 -24.5536
-27.1014 -10.5189 -21.0494
0.856173 -8.70797 -23.5757
-1.80782 4.90459 -21.4735
-13.1033 -10.2044 -22.0278
2.75603 -1.52384 -21.1558
5.26517 0.890975 -21.3588
-8.29675 -4.72182 -25.1366
-10.8769 -11.703 -23.5944
-22.6261 -1.84 -22.169
-4.56287 -8.04072 -25.5733
-4.62238 -5.02113 -24.6824
2.68309 10.2256 -19.3558
-0.831559 -0.374606 -21.2375
-1.91588 1.1993 -21.2278
3.49594 0.184386 -21.7831
-11.8952 1.00508 -21.4498
7.6174 10.1751 -19.0086
-25.8528 -7.49117 -21.2818
-22.706 -0.0940413 -22.2926
1.47121 -5.87704 -23.469
-22.8923 -2.7687 -22.1255
-13.3869 -14.8017 -23.0942
4.85404 10.8396 -18.0787
10.2067 8.19291 -20.5877
-7.38269 -4.75761 -25.2968
-29.4099 -4.06178 -23.0653
-27.0223 -9.55679 -21.2985
-9.42568 7.32782 -17.3379
-32.4858 0.0054737 -22.8204
7.54254 0.173671 -21.3809
-0.290599 -5.66197 -22.7475
-12.2249 11.7634 -17.3117
-12.1679 -11.4075 -22.5908
-28.6133 -5.37458 -22.8855
9.15459 9.64803 -19.3865
-1.12752 5.01245 -20.71
-12.5766 -4.14877 -23.6999
-7.21915 -5.73954 -25.4527
7.19004 8.34409 -20.7874
1.6129 1.11412 -21.3735
-8.14389 4.63698 -19.6435
-10.4346 -2.24882 -23.357
-17.4911 -6.74288 -22.6064
3.00693 9.22215 -19.8238
2.20465 -3.52795 -24.1007
-7.20852 3.16477 -19.8866
-1.53078 9.03182 -18.3689
8.12749 5.55165 -20.9036
-1.77357 -8.50436 -24.6154
-1.57886 10.6392 -18.3996
-5.89429 3.88225 -20.5434
-3.14312 10.5338 -17.9075
8.44608 6.39597 -20.9636
7.06716 2.48604 -20.7907
4.25471 8.64386 -20.201
6.80659 10.6639 -18.9281
1.14485 9.16827 -19.416
-16.8516 -10.7638 -23.4918
-0.33541 10.5212 -18.2594
-1.49711 -17.4753 -25.4893
-23.2995 -15.0751 -21.7274
6.15752 4.27377 -19.8088
-21.4633 1.19367 -22.221
-10.1322 2.16925 -19.8674
0.180956 -19.0374 -26.1614
-4.82495 -15.0396 -25.7378
6.97568 -2.17468 -21.2537
-15.8361 10.5614 -16.3425
7.44273 4.20916 -20.7389
-3.67344 -7.51405 -24.1784
-19.3968 0.711439 -22.2735
6.36611 10.7595 -18.7849
8.86108 5.46225 -20.9009
1.81651 8.51921 -19.8485
-28.5625 -0.98283 -23.5889
-1.46638 -16.8575 -25.7203
-27.2375 -1.01619 -23.2464
-26.528 -14.8546 -21.7473
-3.01537 4.37044 -20.8612
0.143428 -8.04397 -22.2062
-2.23025 10.8541 -17.6937
4.20478 10.998 -18.3337
-21.8952 -0.165003 -22.4343
-0.618483 9.81078 -18.7151
-10.9621 11.1389 -16.7736
-2.64071 2.11341 -21.2144
2.4416 7.8941 -19.7632
6.41668 3.50976 -20.8448
-21.3151 -13.2439 -21.4608
-25.2 -9.48973 -21.3392
6.31242 1.8805 -20.7474
-29.3426 -4.90096 -23.6255
-17.2744 -13.7569 -23.04
-23.4531 -17.0662 -23.2145
-26.2215 -6.97779 -22.103
2.23647 -16.6009 -25.3101
-22.3622 -13.812 -21.3674
-22.2275 3.43328 -17.0902
0.581882 9.37767 -19.1465
-0.0790704 -17.5291 -25.6803
-11.5036 7.62572 -16.7659
6.98872 2.54636 -20.8377
1.46366 9.62525 -19.2429
-0.558431 10.265 -18.6882
6.42646 4.99309 -20.9921
7.20086 10.7691 -18.5166
-24.4537 -17.0217 -23.2804
-2.96087 -3.42171 -21.1674
-3.49404 0.94623 -20.7712
3.93128 7.95628 -20.2754
-25.9211 -10.4212 -21.4038
-21.7343 -1.95663 -22.7537
-8.32656 -14.29 -23.3549
-1.08236 10.4898 -18.5298
-22.2552 -17.9774 -24.8114
-22.2613 3.99952 -16.9219
-20.9996 -0.220798 -22.3155
-21.2889 3.99659 -17.1508
-2.7701 -10.0073 -25.4682
-3.77608 -15.8211 -25.2915
-3.75903 11.1781 -17.8358
-21.738 -16.0161 -22.0758
-25.0461 -15.4818 -22.097
-19.804 3.55875 -17.4128
-3.45647 -8.55144 -25.2426
5.90571 4.23517 -20.8916
-2.3883 11.7056 -18.0439
6.27266 10.9179 -18.2519
-1.2205 11.2198 -18.0054
-4.09043 -13.4445 -24.8224
-3.48288 -6.11924 -21.8214
-0.268564 -8.80896 -24.9577
3.85352 11.1527 -18.5777
-35.103 -3.04425 -25.61
-9.37345 -2.21778 -24.0233
-34.4225 -3.05665 -25.5294
-22.7719 0.0225223 -22.5213
-8.40275 7.3937 -16.3798
-0.424535 9.21849 -18.8298
-26.6436 -5.43409 -22.4305
-2.75757 -13.5402 -26.2693
-9.35563 2.43439 -20.0021
2.51732 -2.43272 -21.0397
-14.8839 0.798359 -21.7579
-31.4249 1.37729 -23.4446
-21.7363 -8.95737 -21.6583
0.522376 10.2855 -18.0045
-2.81854 6.70001 -20.8629
-11.9187 -12.9491 -23.1915
-22.02 -2.61294 -22.1411
-27.1377 0.49083 -23.3614
-22.7198 -3.16366 -22.1652
-27.407 -14.5707 -21.926
-7.58663 -3.94585 -25.6068
3.25351 7.60014 -20.5862
6.96654 5.99986 -21.0564
-21.5124 -0.99237 -22.4248
-30.3738 -3.38736 -24.1731
-3.0784 -13.9221 -25.3959
-11.424 0.893648 -19.6606
-27.7948 -8.91366 -22.4575
-2.52184 -19.8215 -26.8111
1.89113 -17.5338 -25.8356
3.65526 10.2251 -19.4644
-10.2376 -13.2452 -22.8299
6.0747 7.62188 -21.1623
-8.40998 -2.76038 -25.6937
-9.89025 7.24368 -16.2054
-8.85514 6.52098 -16.4302
4.31106 10.559 -18.6068
-10.6663 7.49775 -16.63
3.32421 10.8828 -18.7684
-3.65268 -18.921 -26.0212
5.39271 9.16172 -20.4243
-4.28252 0.776473 -20.6639
6.76697 9.41231 -20.8003
0.990834 -4.35762 -22.2213
0.576256 1.21598 -20.5074
-17.6972 -1.68838 -23.0321
-21.9297 -14.9468 -21.7682
-26.5136 -10.0228 -21.9427
-6.85704 4.26294 -20.2446
-22.2598 -11.392 -21.0966
2.14935 -5.04614 -23.4534
-4.98114 -4.70694 -23.5859
2.97946 10.1555 -19.4588
-15.8573 -10.9013 -22.6934
-0.917094 4.81701 -20.4731
8.26336 -1.58862 -21.5806
-8.231 4.29644 -18.0912
2.53606 10.7451 -18.4321
-3.21003 11.778 -17.8499
-3.91047 1.90607 -21.4792
-11.5103 11.2035 -16.7071
1.26169 7.23454 -21.4369
-8.26306 -14.3347 -23.3546
-19.1543 -1.27404 -22.6763
-25.8261 -2.88543 -22.5697
-0.557539 -6.73422 -22.4517
-2.49781 -1.98917 -19.5625
-19.8585 -7.30577 -21.5314
-4.88677 -18.3955 -25.8083
-10.7833 -11.1449 -22.6592
-25.7349 -14.816 -21.8084
-21.1914 -7.85273 -21.6804
-33.4869 -1.96267 -25.1547
3.93237 7.82273 -20.3709
5.45801 8.20887 -20.6822
-7.92759 3.54046 -20.1095
-35.6674 -4.63375 -26.0856
-3.24209 -14.751 -25.2811
-27.8127 -3.54239 -23.3863
-16.1181 -1.97458 -22.8358
4.48085 10.4149 -19.6819
-13.562 11.7927 -17.6732
0.804637 -7.04481 -22.6252
-1.56618 5.07477 -21.0176
-11.3836 -2.86667 -23.9804
-14.9868 -15.0421 -23.7399
-7.23209 -4.97532 -25.4523
-13.2089 -9.6083 -22.4455
2.62126 -1.38901 -20.9967
7.82232 8.65476 -21.0161
-2.64463 -16.4994 -25.2791
-12.4336 11.3215 -16.7044
-14.6903 -8.34656 -21.9532
0.690272 5.14346 -21.2231
-3.83039 -4.49717 -21.8286
-2.08973 7.59071 -21.0267
-22.6947 -1.58404 -22.5347
-17.9205 -0.588898 -22.2396
-28.3755 -13.2125 -22.1359
-32.6612 -0.119116 -23.5842
1.52601 -5.66613 -23.123
-2.01998 -0.451765 -20.4389
8.90372 8.62759 -21.1784
3.11401 9.47039 -19.6386
-22.0763 -5.43812 -21.7671
-5.21573 -1.99246 -24.9024
-6.05839 -14.8108 -24.881
8.02077 -16.1047 -24.0944
0.760185 -6.24816 -22.7786
-1.26632 7.59667 -20.458
-9.76852 -15.3704 -23.5531
-8.33988 -4.6659 -25.3724
-33.5674 -3.90592 -25.777
-31.7334 -1.50779 -24.8281
0.568216 -0.175969 -20.9067
-4.78366 -13.6844 -25.1458
-20.1555 -1.2818 -22.1653
-2.72131 -11.9886 -25.4706
5.62827 5.04111 -21.1541
-13.928 -2.17732 -23.2066
-6.05556 -10.8992 -25.3015
-1.15405 -11.9185 -25.6769
4.88593 10.7379 -18.596
-8.7774 9.87809 -17.8843
-4.11847 10.6121 -17.8058
-5.82352 -18.7643 -26.7704
-36.3083 -6.51887 -24.2583
-8.00299 -19.7049 -27.4955
7.77403 5.52202 -20.5692
7.22918 5.36412 -21.0768
0.463851 -19.9117 -26.6379
6.95772 2.41571 -20.3138
-1.95341 -8.17123 -23.6433
-22.8395 -16.7573 -26.7576
7.01222 4.17768 -20.3645
-9.01723 4.41228 -17.5941
-17.4079 0.385946 -22.6867
-24.1861 -16.0443 -23.189
1.04527 9.04212 -19.2442
-22.786 -12.6126 -22.1528
-0.573794 10.1645 -17.8275
-28.4098 -15.5375 -23.0456
-3.7471 -1.94223 -20.3179
7.01084 5.92197 -20.3915
-0.233518 10.6387 -17.283
-27.6338 1.86416 -23.7831
6.42943 2.14692 -20.6399
-29.4695 -1.64924 -24.4837
-1.62859 -19.6592 -26.457
6.24214 8.54944 -20.5148
0.779869 10.6037 -17.3267
-27.668 -0.733586 -24.1172
-25.0471 -16.1045 -23.1531
-25.2321 1.78148 -23.1382
5.61945 10.6439 -18.2073
6.17662 5.09666 -20.8976
-13.7572 1.08302 -21.2408
-22.0699 -13.8812 -22.4824
-23.0283 -14.0713 -22.4488
-29.2481 -0.677482 -24.513
0.0188861 -17.6392 -25.9473
0.0442804 -8.19321 -23.199
1.95028 -7.41662 -23.3734
1.623 -8.36595 -23.1213
-4.48303 -11.016 -26.0221
5.85961 1.23387 -20.8008
-1.74592 2.73004 -20.53
-27.7991 -7.34275 -23.5318
-29.5122 -4.8654 -24.1197
5.56846 8.97866 -19.8009
3.18405 0.230217 -22.4694
-2.69873 2.72467 -21.3753
-25.9677 -9.87147 -22.3481
5.69314 2.52372 -20.5282
-31.5125 -0.646369 -25.261
2.15793 8.73626 -19.7295
3.95269 7.82921 -20.5033
4.10318 10.7277 -18.0056
-26.5926 -16.5188 -23.2922
3.90356 8.78055 -20.1982
3.6413 9.52671 -19.8897
-27.5957 -9.18896 -22.8674
-30.4721 0.571134 -23.2094
7.13671 -1.07732 -20.8941
0.283284 9.12772 -18.6698
-16.7453 -19.4003 -27.7053
-19.1392 0.601992 -22.8643
-23.9833 1.69258 -23.0059
-22.3165 -17.6767 -24.2354
-4.41579 -2.15772 -20.2863
-3.37121 1.05808 -21.5745
-3.16642 -8.64196 -25.5302
-15.5158 0.377268 -22.9565
-2.76187 -3.01915 -20.6195
-4.12383 -3.74859 -21.5276
-0.695195 10.4789 -17.4775
-3.29928 11.0825 -17.6918
3.14297 9.00245 -19.9178
-16.1689 -15.8561 -24.3821
-10.6518 1.22397 -20.8299
-23.4344 -21.2855 -28.3261
-3.9603 -16.1179 -25.8207
-3.68857 -14.8864 -25.9001
-27.5788 0.931979 -24.0231
1.48231 -6.43637 -23.0925
-20.3199 0.893123 -22.9671
-16.4661 -20.0683 -26.8135
-6.90333 -10.6437 -24.3278
5.79575 4.325 -20.7762
-37.039 -3.42835 -27.7799
-4.3994 0.59873 -20.3445
-1.03736 10.1632 -18.1221
-0.48291 9.07567 -18.5077
-31.8856 1.34323 -24.0353
-22.8473 -8.52877 -22.5443
-1.6298 4.05464 -20.7933
-2.13605 2.10129 -20.3404
-10.523 -13.7855 -23.6728
-38.2924 -2.58747 -26.3106
0.403344 7.80156 -21.3703
0.122003 9.85565 -17.5229
-11.1585 -16.0668 -24.032
-5.85875 -3.61646 -25.3217
-38.2274 -7.11338 -27.1219
1.70996 8.08609 -19.6429
-2.62036 11.3674 -17.7796
-8.53193 3.69042 -19.3726
-24.3129 -3.40909 -22.826
-15.5589 -0.296755 -22.9625
-3.26694 2.02457 -21.6466
-1.62232 -6.51635 -22.104
1.5553 4.91181 -21.109
-6.08303 -1.95816 -24.9326
3.48221 10.3879 -19.6709
-21.8135 -0.806635 -23.2087
-16.6178 0.272941 -23.1019
-0.155211 -3.36863 -22.202
6.43333 5.77057 -20.9466
3.23351 10.7964 -18.699
-34.6696 0.0112569 -25.0401
-3.16628 -3.51058 -21.2952
-1.33982 11.0168 -17.5784
-35.7203 -3.54186 -27.712
-23.1229 -16.0769 -22.9876
-8.00297 -15.3252 -24.9348
-1.80382 7.41544 -21.3021
1.64328 -17.6363 -26.035
-31.7125 -4.32524 -25.4053
-32.7634 0.150578 -21.8887
-27.4965 -16.3201 -22.9572
-34.8764 -2.64794 -27.4064
0.764458 -6.35714 -23.1298
-3.65136 -19.5275 -27.0926
-2.18126 -3.11508 -20.7533
-2.16964 3.4638 -20.9996
-1.16153 -15.2656 -25.9529
0.994691 -19.7077 -26.3583
-2.86869 -13.7584 -25.8556
0.569581 1.19477 -20.3042
-3.71346 -12.7199 -26.1645
-22.4907 -19.8272 -29.0399
-28.2423 9.06797 -17.594
-9.88136 -12.0064 -24.0427
6.53214 9.28837 -20.4202
-17.9768 -10.7231 -23.4308
-5.01985 -4.86014 -22.8679
-7.34475 -4.7504 -26.2655
-5.201 -1.14605 -24.3966
-22.5874 -3.81645 -23.0348
-8.38924 4.19858 -18.2268
-4.78236 -16.7358 -26.0491
-3.03196 -16.6978 -25.6675
-14.2453 -2.01446 -24.3085
-19.9409 -7.42272 -21.9267
-11.3154 -13.3065 -23.7043
-17.0862 -15.9924 -24.6539
0.299326 5.16911 -21.1522
-4.76131 -18.9261 -26.784
8.10088 8.66614 -20.8276
-4.25415 -0.379852 -20.071
4.48094 10.6624 -17.7129
-15.9323 -2.28668 -23.8348
-9.44318 2.53342 -19.6334
-22.6351 -2.95519 -23.2674
-28.6619 -5.41894 -24.0128
-18.5023 -8.92027 -18.9791
-1.81009 9.81429 -18.1212
-15.4778 -12.0314 -23.5638
-29.5226 -9.96839 -23.7163
5.48916 -0.396833 -20.1567
-18.9716 -1.67862 -24.3341
-23.0448 1.58654 -23.154
-0.731844 1.23711 -19.7963
0.964458 7.18769 -20.9639
-26.3381 -2.99014 -23.7104
-1.43909 -0.396164 -19.7025
-28.9877 -8.14546 -23.7526
-22.6522 -9.4825 -22.4342
-23.3373 -0.909289 -23.4422
3.30798 -0.615337 -22.5268
5.15851 8.90962 -20.3624
-20.9126 -1.17368 -23.0818
-1.44049 -14.3524 -26.05
-15.6923 -10.7958 -23.5398
1.9645 -0.875837 -21.4474
2.28041 -5.73474 -23.6087
-8.25931 -11.9293 -23.1259
-16.3229 -0.974361 -23.3006
-9.37096 -18.6071 -25.918
-6.60204 -4.10457 -25.3088
-2.72553 -4.71326 -21.9737
-10.8095 -11.0538 -23.6065
-22.3547 -15.8824 -23.2017
-9.71695 -14.1243 -23.9844
-1.03045 -12.2387 -26.132
-4.6363 -10.1256 -25.6591
6.40709 9.7148 -20.2526
-22.9479 -1.75057 -23.1358
-8.21899 -15.9425 -24.3876
-4.59639 -7.94201 -25.3773
6.27919 -1.19858 -20.8329
-21.3262 0.493374 -23.0567
-29.7868 -2.99213 -24.4293
-25.7174 -7.09565 -22.6283
-0.868312 -10.7677 -25.7581
-3.8606 1.86134 -21.9302
-1.94339 4.98856 -21.1814
-16.2013 8.47534 -18.5235
-15.8316 -14.1942 -24.0077
-20.2166 -0.224863 -23.1665
-17.4906 9.10464 -17.7807
-29.2569 -14.413 -23.2927
-31.8237 -2.2969 -25.6774
-15.3118 11.1798 -17.2779
-21.7636 -15.7837 -26.6312
-2.7765 -5.43519 -21.9251
-22.8564 -11.6766 -21.9682
-27.3929 -5.73011 -23.6348
-34.0499 -3.58656 -21.1377
-17.4607 -1.91152 -24.7867
2.80943 7.52785 -20.2173
-3.99246 -5.13968 -22.1464
4.23695 10.2773 -19.7234
-8.20171 -5.79997 -25.0439
1.71038 1.29308 -20.9117
-21.6515 -10.3324 -22.118
-2.15302 4.53842 -21.0937
-3.52954 0.206491 -20.4124
-29.3261 -15.375 -23.0161
-18.0792 0.342607 -22.6311
4.50089 8.40718 -20.1706
-23.9453 -15.8102 -22.8019
-35.0439 -6.15449 -22.9328
-22.7288 -12.6682 -22.1355
-3.71768 -2.00374 -20.2766
-7.87259 10.7709 -17.7783
-0.894437 -18.7042 -27.1151
-24.8275 -15.9093 -22.8211
-15.0159 10.1586 -17.0931
-0.662188 10.0359 -17.5394
-29.4075 -1.09236 -24.6017
6.76402 4.47836 -20.5254
-32.064 0.366199 -19.741
6.19742 8.52053 -20.4802
-28.3043 -15.4807 -22.9214
-13.9351 1.19459 -22.6595
0.270366 -8.21646 -22.7897
-22.3675 -16.1823 -25.8504
6.07929 3.31525 -20.4311
1.82953 9.07162 -19.1941
-9.23589 3.9391 -19.205
-8.30746 -15.0374 -24.6823
-27.7654 -0.98121 -23.9795
6.09213 8.02348 -20.7531
-22.8239 -13.7447 -22.3298
0.592752 -18.6619 -27.44
-4.42865 -8.98042 -26.0117
-2.11448 2.36221 -21.599
-2.90497 -8.80831 -26.1921
2.52337 9.28088 -19.0279
3.36299 -18.0889 -27.7496
-3.15356 -7.90328 -25.5844
-27.1732 -7.34635 -23.2834
-22.3972 -18.2711 -28.9427
-24.4025 -17.0848 -23.2028
-19.3024 0.719253 -22.0675
-25.5843 -0.650136 -23.2484
3.78673 8.97206 -19.6226
1.00518 8.21882 -19.2
6.77857 -2.04149 -20.9334
-11.0051 11.5348 -17.4052
-24.8091 -12.6101 -21.6142
-6.68397 10.3316 -16.5056
-0.782533 9.8837 -18.3334
0.491808 9.2963 -19.1019
1.08739 9.30717 -18.6288
-8.19976 6.14257 -16.357
-25.3285 -17.212 -23.3923
-25.3247 -11.4766 -21.912
-4.4494 -6.84427 -25.7043
4.24815 7.83205 -20.2884
-1.20243 -5.95696 -21.8075
-21.9243 -0.0684208 -22.3785
-0.724325 10.3248 -18.2078
-2.34212 10.9629 -17.9935
-30.5903 -0.635266 -24.4564
-23.2894 -19.3489 -26.4854
-26.4842 -12.8392 -22.285
-1.70564 11.0209 -17.7461
-4.42547 -2.1421 -20.3229
2.43971 8.48085 -19.5184
-11.1897 -2.13531 -23.0602
-3.19606 -2.8772 -20.7568
-5.67534 -1.92315 -26.1052
-3.73739 -16.6475 -26.8252
3.94099 10.7352 -18.1079
-3.34433 -15.3986 -26.9347
-1.14559 -3.38677 -22.5094
-2.60195 -10.1888 -26.2659
-9.25971 -2.25355 -24.1352
-30.115 -4.22054 -24.0441
-8.05339 2.83794 -20.0591
-6.39103 -2.3594 -26.1429
-3.15703 -6.27961 -22.5622
0.174663 -8.95884 -25.5754
-14.1917 -13.4932 -25.6904
-3.3118 11.0616 -17.7055
-16.0528 -18.9772 -25.2967
0.152912 9.88818 -17.4866
-36.0157 -4.92601 -22.6843
-26.5441 1.69247 -23.8311
-16.4729 -16.5802 -25.716
-35.3468 -3.14461 -26.0789
-22.6935 -21.3589 -29.6489
-16.0329 -10.8243 -23.2279
-28.3544 -9.19072 -23.2653
4.15946 -18.1567 -27.395
-4.36072 0.0479967 -20.1523
-37.3196 -6.893 -26.2695
-28.1229 -4.32932 -23.5883
-26.5013 -15.619 -23.0103
-36.7611 -7.33773 -23.3255
-0.22222 9.76561 -17.6086
-27.6499 0.804276 -24.029
-36.3183 -2.39698 -24.3817
0.615888 -3.49593 -23.2173
5.46287 -0.357129 -20.081
-2.68469 11.4289 -17.6564
-11.0597 1.00909 -20.4783
-5.77736 -3.76562 -26.2857
-22.7601 -11.7388 -21.9291
1.55546 7.79352 -19.5065
-1.73753 2.17182 -20.5541
-8.69771 5.05136 -17.102
-15.5025 -1.11498 -23.308
2.97157 9.9343 -18.9529
-27.9947 -16.035 -22.91
-22.3105 -2.61286 -22.5822
-5.00463 0.95372 -23.7766
3.33444 10.6866 -18.2496
-6.7803 4.26178 -20.2462
-9.83337 -14.2675 -24.3534
-2.83335 -15.8299 -27.1529
-17.829 -1.76243 -23.6405
-1.26126 10.0117 -18.2025
-22.6516 -15.1589 -22.6876
-0.323 -3.43455 -22.4744
6.17999 -3.20744 -20.8882
-10.6515 -14.3596 -24.8387
2.35346 -2.32649 -20.6885
-27.4022 8.86201 -16.9574
-26.8248 -2.92282 -23.1628
-0.193151 9.41621 -18.0062
-2.73086 -2.4412 -20.4874
-23.0216 -3.68368 -22.691
-5.08642 -4.73448 -23.6158
-12.4494 -17.9121 -23.8379
-2.18471 -20.2287 -27.331
6.18688 -1.02638 -20.5358
-28.244 -3.18814 -23.7423
-13.4311 -10.8371 -25.3066
2.11973 -5.60174 -23.5155
-28.0472 -2.14842 -23.8137
0.309601 5.06462 -20.8429
-22.2182 0.0573916 -21.2928
-8.38493 -15.8536 -24.7677
-27.1392 -5.66579 -23.3815
-8.31935 5.71388 -16.5001
-1.90981 7.3971 -21.2768
-14.1293 -2.2633 -24.3044
-2.63989 -4.31119 -22.2812
-5.99689 -11.5203 -26.2591
-2.10478 4.88378 -21.1138
-28.7262 -9.86294 -23.173
-23.9228 -0.678664 -22.5843
-31.3603 2.04328 -23.1544
-20.649 0.9403 -22.3498
-17.1392 8.66787 -16.9818
-4.8029 -18.7028 -27.2108
1.52099 -4.71187 -23.4017
0.753227 -6.14359 -23.037
4.98837 9.15496 -19.9563
-22.413 -9.31625 -22.0133
6.69701 8.92355 -20.4713
-1.38677 -14.4401 -26.5023
-29.9781 2.06972 -24.8769
2.14908 7.36425 -19.8269
-0.453637 -6.7778 -22.6896
-36.1686 -4.67527 -26.5154
-20.1807 -1.22828 -23.388
-17.6501 -10.4506 -22.7681
-10.7462 -12.9331 -25.6964
3.54269 10.8634 -18.1521
-2.40928 -18.4779 -28.7191
-22.5893 -16.1735 -22.9818
-8.13102 -13.1854 -25.9913
-12.1889 -14.5015 -26.3304
-8.01139 3.53193 -19.9514
-18.2378 -10.2063 -21.5284
-14.0271 11.309 -17.2068
-23.288 -0.848802 -23.8404
3.71026 9.8832 -19.1075
-2.68276 -20.084 -27.3919
-34.1272 -2.67663 -26.0365
-28.3719 -5.75941 -23.5773
-2.19193 1.11576 -19.6295
-13.0815 10.9032 -16.2879
-33.1859 1.93801 -20.857
-13.5024 7.69882 -17.8301
6.31671 9.65221 -20.1734
-15.0031 1.17515 -22.6305
-20.1555 -0.218859 -23.0318
-27.4365 -3.81705 -23.581
-28.9943 -14.0873 -22.9967
-11.0582 -2.88833 -23.3374
1.79522 -1.20578 -19.7833
1.67082 9.72119 -18.8026
2.75197 7.22158 -19.6159
-3.25766 2.52013 -22.1586
7.67427 1.0106 -26.6873
-7.64022 4.23221 -19.0119
-27.3028 9.07069 -17.9728
-26.1008 -3.0483 -23.4171
-6.1027 -20.4271 -27.4379
-21.633 -15.0566 -25.5958
-20.5806 -1.99456 -22.7823
-12.2588 11.0343 -16.2875
-18.0058 8.10513 -17.2797
-7.55996 -13.4432 -25.5249
-20.4792 -10.3824 -22.3728
-2.42 -14.916 -27.1156
-5.05576 -1.27522 -19.9795
2.5761 -15.375 -26.5249
-13.8836 -15.3365 -23.9177
-14.6925 11.2001 -17.2112
-0.89454 -0.406584 -21.8142
-12.8294 -12.1467 -26.3607
-6.81754 -19.4277 -27.2022
-2.66245 -8.2618 -24.3295
-17.2846 -11.405 -23.107
-29.1678 -3.69379 -23.8239
-11.63 11.1712 -16.6649
-15.0681 -17.6035 -24.2917
3.65024 0.473681 -22.17
-7.11018 3.28828 -20.4678
-3.96201 10.8938 -18.2974
1.84047 -3.47172 -23.4886
-1.33914 9.26163 -18.7987
-33.9395 -5.88915 -21.7868
-8.98069 4.52689 -18.2015
-1.47913 10.8282 -18.6126
-2.93104 10.8357 -18.4257
-5.87129 3.8918 -20.5272
4.09538 8.64949 -20.0689
-22.6757 -12.5488 -21.9797
-7.66695 11.348 -18.6989
-17.5354 0.379788 -22.7719
-16.7773 -10.6509 -23.2033
-24.7724 -15.8109 -22.7605
0.322777 -19.3282 -26.5836
-1.28744 -17.2087 -26.3244
-10.0804 2.27469 -20.3459
-27.3517 -15.8295 -22.4294
1.04341 8.93918 -19.2406
-21.5782 1.22785 -22.5207
-2.34262 -6.74781 -22.8948
-4.62472 -15.4299 -26.5347
-2.71664 4.49203 -21.7221
-23.445 -17.1442 -23.2571
-22.6406 -13.5683 -22.1145
-28.9002 -4.51925 -23.0115
-27.8902 -15.074 -22.3764
-26.673 -0.707078 -22.6986
5.84885 9.1083 -20.2009
5.59951 2.60366 -20.4715
-2.73924 -8.86771 -26.279
6.00551 5.04895 -20.675
-22.5146 -10.2471 -21.9164
2.75616 7.99591 -20.1753
-8.12384 6.44453 -16.8477
-23.8619 -16.1572 -22.9157
-24.9479 -0.585609 -22.1888
3.18268 0.405734 -22.3078
-27.2405 -7.27564 -22.7584
-25.5372 -9.66883 -21.7631
1.78416 8.54097 -19.748
-1.66063 2.65329 -20.8024
-30.9441 -0.441663 -23.1445
-15.9727 10.5962 -16.4034
-0.288882 9.28163 -18.9895
-8.49277 -15.1786 -25.199
-3.91393 -3.97235 -22.3786
1.85086 -6.69668 -23.4081
-2.8439 3.89102 -21.8639
-3.1033 11.3679 -18.2407
-17.4872 -14.3373 -23.9245
-24.3206 -16.9565 -23.1015
-22.2454 3.44087 -17.0802
1.81045 7.97804 -19.779
3.87106 -17.5605 -26.8268
-25.1439 -12.7817 -21.9023
-23.5508 1.63853 -22.3625
3.81086 8.7196 -20.0259
-27.4224 0.0287878 -22.6957
-23.3343 -19.345 -26.6867
-25.199 -11.3118 -21.8708
-3.2955 3.64558 -22.1453
-16.1741 -18.039 -25.6908
-1.38837 11.4061 -18.4328
-2.66506 11.8102 -18.254
-4.72674 -16.9854 -26.5301
4.07808 9.4888 -19.7154
-1.98942 3.46567 -21.7377
-34.5494 -4.68214 -21.3671
-33.5069 0.618405 -18.636
-2.17465 11.3065 -18.5061
-27.0377 -5.67938 -22.9419
-1.06822 11.4384 -18.2145
-14.2263 -11.4992 -21.9606
-9.24451 -2.26852 -24.8687
-3.52715 -15.2162 -26.6753
5.64187 4.2324 -20.6058
-22.1624 -14.2867 -22.6884
1.1263 9.4749 -18.9817
-31.7136 1.84847 -17.6988
-1.81689 -3.24148 -21.6485
-15.4717 0.353033 -23.1377
3.77229 11.0642 -18.6243
-33.2285 -1.18302 -18.9824
-8.66587 2.73304 -20.5192
-1.75563 2.02257 -20.9051
-33.4995 -3.08347 -24.4907
-2.56176 6.93083 -21.6325
-2.50218 -10.4284 -26.6997
-3.60121 -13.4922 -26.812
-2.63793 -13.9858 -26.8067
-6.14878 -2.10523 -25.3428
-22.6523 -8.47086 -22.1368
-4.17757 0.762117 -21.4935
-20.8358 -1.27533 -22.672
-13.1678 -11.0241 -20.4359
-6.28646 -16.4367 -25.9376
5.46154 7.77847 -20.8841
-13.6227 -2.55297 -24.0618
-26.5326 0.454511 -22.4935
-3.53386 -16.4161 -26.7458
1.91168 -7.3027 -23.2567
-2.74813 -16.0478 -27.1868
2.6298 8.66973 -19.9264
3.98858 10.9071 -18.093
-8.32262 5.91136 -17.1244
-0.711461 1.30124 -20.8347
-30.0553 -3.31348 -23.452
3.19641 10.7858 -18.6451
-25.7575 -3.15431 -22.9038
-8.35052 7.46387 -16.5263
5.19472 9.05568 -20.2062
-31.2533 1.78845 -19.5842
-10.4669 -14.2108 -24.4608
-22.0567 -9.26966 -22.1868
-8.87521 6.75578 -16.6097
1.24018 -3.48737 -23.3096
3.48422 9.82355 -19.5175
-20.4925 -18.5856 -29.0594
-21.4732 -0.752514 -22.6649
-22.6975 -11.4864 -21.8277
-15.5473 -0.538238 -23.2667
3.32983 -0.559292 -22.4976
-1.46709 -6.14823 -22.9297
-4.98668 0.928179 -23.2179
-30.6157 1.92475 -22.2913
-33.5113 -2.94976 -19.721
-3.03211 -6.72728 -22.7375
2.2514 -5.07841 -23.6953
-15.7254 -12.0551 -23.7954
-4.20773 0.0394223 -21.1111
-1.00417 -15.5415 -26.4708
-2.32302 -2.48731 -21.273
-27.4409 -2.27319 -22.9439
-34.0399 -2.38263 -24.3299
0.080259 9.94988 -18.2389
1.5016 -4.3871 -23.4539
1.20517 7.14775 -21.2941
-7.33614 -4.91193 -25.9387
-1.37187 10.292 -18.7141
-5.72111 -1.86158 -25.468
-8.1531 -12.95 -25.3359
-22.1169 -19.0276 -27.8236
-31.9769 1.79727 -19.5894
-5.11903 -3.7154 -23.1134
-32.1545 -0.231552 -19.4611
-1.23518 -6.76285 -23.1312
2.1754 -18.0611 -26.5481
4.4558 10.71 -18.7703
-7.12908 -5.93009 -26.1292
-24.2351 -3.5487 -22.4649
-11.5222 0.972148 -20.6409
-32.2513 0.0793994 -21.7141
-22.6636 -15.3299 -22.9164
3.8792 10.6372 -18.8232
-2.65488 -14.3594 -26.8266
