ply
format ascii 1.0
element face 0
property list uint8 int32 vertex_indices
element vertex 1585
property float x
property float y
property float z
end_header
-5.400193 -1.491982 -10.485009
-7.620403 -1.338504 -9.683075
-2.782859 3.354606 -10.769842
-4.898526 -1.273660 -10.171402
-4.687762 1.148340 -10.779388
-6.550356 -1.055275 -9.746779
-5.040633 1.129430 -9.986421
-8.250155 2.329196 -9.183986
-8.359031 0.052689 -8.838919
-7.460038 0.643787 -9.571530
-8.733170 1.674601 -8.946980
-6.916390 -0.729767 -8.584443
-2.260865 -1.951520 -11.404299
-10.836062 3.340579 -10.931786
-6.638715 1.380188 -10.015777
-7.096395 -0.119970 -9.705874
-4.675032 -1.656923 -10.037541
-3.249967 -1.301717 -10.659808
-8.719372 1.184228 -8.836926
-2.964148 1.088590 -10.529812
-7.946066 -0.025610 -9.350497
-7.864795 -0.449706 -9.605533
-2.828706 -1.266703 -10.256477
-8.361718 2.709534 -9.217019
-4.010937 -1.312417 -10.585158
-5.969038 3.083218 -8.280976
-6.257291 2.623311 -9.226183
-5.687391 3.024141 -8.820079
-5.955284 1.683276 -9.953649
-6.797465 2.872641 -9.212523
-5.803340 -0.238324 -9.934090
-8.244302 1.626353 -8.988919
-6.189783 1.473679 -10.191149
-9.118798 2.928559 -9.138210
-5.883945 -0.808895 -9.946009
-6.320283 2.266196 -9.890214
-10.848490 4.038539 -10.239211
-5.214408 -1.066724 -10.266764
-6.624360 2.507094 -9.594764
-6.064461 0.521355 -10.490657
-8.348544 -0.660578 -8.870720
-6.345104 0.573458 -10.372438
-7.030870 -0.947592 -9.630132
-8.561578 3.138438 -9.021555
-5.440721 1.181118 -10.208754
-5.721065 -1.214909 -10.250065
-7.015353 1.858229 -9.630383
-5.033152 -1.707701 -10.471690
-4.861893 3.524108 -9.060285
-7.559997 -0.725672 -9.356399
-4.332492 -1.837946 -10.833951
-5.385363 -1.598699 -10.400226
-6.142915 2.943088 -8.642225
-6.929504 1.616430 -9.671799
-8.315739 -0.319176 -8.891018
-9.027821 0.894133 -8.601384
-7.192208 -0.057900 -9.011021
-8.387011 0.692269 -8.884622
-4.757942 -1.045407 -10.110370
-10.352877 2.519472 -9.681690
-5.448371 -2.385861 -10.704648
-5.003623 3.429819 -8.554800
-8.735391 0.351700 -8.681633
-5.099796 -0.645704 -9.984839
-7.317647 1.292163 -9.544408
-5.474427 -0.439271 -10.066278
-8.557287 2.539534 -8.961771
-9.765224 2.112657 -9.416518
-8.694592 0.823370 -8.866485
-10.895850 2.557176 -9.894483
-6.384196 -1.527635 -10.334182
-2.901604 2.957957 -10.752797
-3.817925 -1.814815 -11.133227
-5.080627 3.928037 -11.956960
-5.381008 -1.479304 -10.414417
-7.621764 -1.341270 -9.688422
-9.416234 -1.052247 -8.759364
-5.855074 2.119917 -9.813007
-5.848151 2.934733 -7.781541
-11.735315 2.283129 -11.343623
-6.776262 0.882334 -9.858303
-12.668780 4.098232 -11.441338
-8.666737 -0.624269 -8.729050
-5.659950 2.846271 -9.467096
-6.824173 2.659927 -9.335005
-6.771311 2.186932 -9.561064
-5.842189 3.363208 -8.924627
-4.576321 1.103352 -10.193514
-5.740772 2.696235 -9.623824
-6.180291 1.466386 -9.816580
-3.608448 -1.468089 -11.094112
-6.517573 1.330820 -9.680589
-9.164064 1.435240 -8.943289
-6.595470 2.481159 -9.526263
-5.121167 -0.996382 -9.799077
-5.965243 -1.148676 -10.026059
-5.919670 0.768240 -10.155526
-13.330415 1.979830 -11.736952
-12.900160 3.062543 -11.410337
-6.098245 2.383173 -9.481712
-6.202840 -0.985594 -9.766082
-10.695836 3.603841 -10.325584
-7.923453 2.859529 -8.772684
-5.994307 2.821291 -8.301731
-4.385158 -1.800115 -10.699213
-6.737898 -0.844469 -9.777653
-9.005258 0.945130 -8.574066
-5.077327 1.125264 -10.110024
-8.224522 -0.280762 -9.034941
-7.856131 -0.795333 -9.313184
-8.819808 -0.135139 -8.720442
-6.341410 2.729569 -8.972955
-13.687843 2.632709 -11.855752
-10.955402 2.946577 -10.644331
-12.551694 1.662657 -11.747800
-8.469975 0.468861 -8.995711
-5.216877 -0.687524 -10.376329
-8.610440 -0.277105 -8.724078
-5.423787 -0.530221 -10.225117
-11.958305 2.922029 -11.286764
-4.868586 -0.730647 -9.503080
-7.140253 2.216926 -9.401902
-11.808513 3.271385 -11.188797
-7.320094 -1.347511 -9.709493
-4.638550 -0.662989 -9.731276
-4.347953 -0.725075 -9.941812
-9.071219 0.269969 -8.551982
-5.220019 3.301544 -9.879922
-8.646565 3.855994 -8.656514
-4.860032 -1.238310 -9.913278
-6.599580 -1.075686 -9.904252
-8.270309 2.335115 -9.203691
-8.289044 0.058795 -8.714053
-7.468957 0.646679 -9.595666
-7.122723 -0.120958 -9.783332
-8.778957 1.197116 -8.934905
-7.880471 -0.016414 -9.216032
-8.284625 2.669362 -9.062735
-5.933908 1.667070 -9.868366
-5.813163 -0.245712 -9.983945
-5.812398 -0.775127 -9.668357
-6.345770 2.282934 -9.973192
-6.964330 -0.925746 -9.459078
-5.402160 1.169211 -10.015651
-5.603347 -1.141075 -9.753070
-4.897803 3.593328 -9.281068
-7.141888 -0.052082 -8.895229
-8.737135 0.817911 -8.940638
-5.862494 2.116835 -9.843290
-11.526486 2.233626 -11.047932
-8.628540 -0.621032 -8.669688
-5.685064 2.872625 -9.569511
-6.866358 2.686175 -9.447585
-6.804186 2.203538 -9.652844
-5.875027 3.400907 -9.041787
-4.579566 1.107532 -10.229822
-5.765617 2.720095 -9.723109
-6.195694 1.472646 -9.872346
-3.605371 -1.457629 -11.058838
-6.532739 1.335256 -9.729415
-9.175567 1.433092 -8.960199
-6.599866 2.477281 -9.539350
-5.105026 -0.986032 -9.729554
-5.972935 -1.154573 -10.064558
-5.864601 0.755654 -9.948361
-6.123415 2.401124 -9.569050
-6.181045 -0.976745 -9.702316
-7.987118 2.891076 -8.893997
-6.019283 2.842626 -8.383402
-4.374147 -1.780676 -10.619205
-6.715193 -0.837592 -9.720090
-9.026143 0.943665 -8.606982
-5.083130 1.129406 -10.150173
-8.200967 -0.280441 -8.994806
-7.850878 -0.791900 -9.307919
-8.797995 -0.136749 -8.688126
-6.373890 2.753626 -9.071087
-11.024584 2.968909 -10.733436
-8.469027 0.466213 -8.995995
-5.209686 -0.682942 -10.350148
-8.584971 -0.277608 -8.684905
-5.416289 -0.526591 -10.200333
-4.853399 -0.722277 -9.431904
-7.178386 2.234145 -9.496341
-7.280670 -1.332552 -9.620295
-4.626881 -0.655692 -9.669796
-4.338631 -0.717165 -9.882676
-9.065210 0.266193 -8.544809
-5.246307 3.341734 -10.013945
-8.758214 3.924790 -8.836484
-8.794859 1.704320 -9.075196
-13.101483 2.551133 -10.597562
-8.404166 1.660415 -9.310864
-13.493069 2.849899 -10.562469
-7.412487 -0.845579 -9.675163
-6.753577 0.645960 -9.895250
-5.990001 2.400109 -9.747996
-13.325322 2.021281 -10.661335
-6.285355 0.603332 -9.944108
-6.939907 -0.832777 -9.963915
-6.480987 2.335314 -9.739334
-5.709577 -1.026160 -10.176081
-10.687158 3.427107 -10.857461
-7.140208 1.751384 -9.688917
-8.239629 -0.763146 -9.486397
-13.234963 1.994881 -10.629817
-5.853569 0.480594 -10.122059
-5.229782 1.169932 -10.376271
-6.963990 2.422663 -9.730443
-8.507055 1.164250 -9.265167
-4.799944 -1.086134 -10.420613
-4.927956 1.135554 -10.227206
-4.985749 -0.724040 -10.243984
-8.609324 0.698129 -9.341006
-6.584542 2.743604 -9.743907
-10.505954 1.724498 -10.456727
-7.328448 -0.485291 -9.731205
-9.019478 -0.229286 -9.148629
-8.232108 -0.275649 -9.526823
-7.404046 1.307865 -9.586478
-11.227544 2.696151 -10.983107
-5.363019 -0.813855 -10.435287
-9.007064 0.368766 -9.149037
-8.561490 2.565974 -9.049537
-8.627584 0.406063 -9.342073
-8.292691 2.672140 -9.078376
-11.586306 2.816824 -10.880916
-8.867394 0.752646 -9.208295
-8.771022 2.028645 -9.111763
-8.330075 0.020333 -9.521828
-4.860659 -1.245233 -9.961967
-6.598035 -1.077805 -9.920748
-8.341304 2.372259 -9.368419
-7.409116 0.640351 -9.436963
-7.097327 -0.118156 -9.712737
-8.912069 1.219182 -9.184112
-5.942431 1.673992 -9.906723
-5.803765 -0.244843 -9.946784
-5.567814 -1.112335 -9.555396
-5.873019 2.118840 -9.886983
-11.417350 2.209676 -10.870860
-9.195947 1.436908 -8.993713
-6.624212 2.491617 -9.615286
-5.959542 -1.146444 -10.021866
-5.866262 0.748086 -9.936742
-7.824895 -0.784142 -9.258072
-8.849998 1.715794 -9.175814
-8.423524 1.666098 -9.348789
-13.548806 2.866078 -10.612732
-7.382314 -0.834342 -9.601377
-6.744367 0.648196 -9.868143
-6.011249 2.421144 -9.840888
-12.963486 1.964820 -10.233861
-6.280898 0.604413 -9.930462
-6.903550 -0.818597 -9.855232
-6.505814 2.354431 -9.827409
-5.688838 -1.009728 -10.078853
-10.777462 3.472427 -10.991493
-7.159225 1.759300 -9.743077
-8.182896 -0.751306 -9.368129
-13.213508 1.993387 -10.595884
-5.865939 0.479788 -10.185025
-5.227584 1.173905 -10.366467
-6.977724 2.432025 -9.768946
-8.517758 1.162786 -9.285541
-4.787774 -1.066898 -10.318480
-4.927387 1.139801 -10.230817
-4.975469 -0.712793 -10.174368
-8.578559 0.698680 -9.281503
-6.616930 2.772158 -9.853632
-10.510738 1.727977 -10.459095
-7.368911 -0.496539 -9.850493
-8.972386 -0.228437 -9.067073
-8.190952 -0.271846 -9.440402
-7.418313 1.310738 -9.624973
-11.268402 2.707944 -11.033975
-5.345548 -0.797840 -10.333893
-8.987526 0.364391 -9.115120
-8.617333 2.590338 -9.152961
-8.608575 0.402804 -9.305737
-8.242750 2.648519 -8.968807
-11.633524 2.830774 -10.937030
-8.864950 0.748575 -9.203924
-8.829214 2.043887 -9.217573
-8.297370 0.020721 -9.454414
-5.889521 2.119543 -10.100530
-8.638382 0.053070 -9.397448
-5.685428 3.091437 -9.500301
-11.437501 2.198147 -10.935394
-11.669886 3.657119 -10.940748
-12.276009 3.925909 -10.862777
-9.597961 -1.059408 -9.110586
-6.912914 2.710569 -9.571415
-6.739960 0.891155 -9.797584
-5.990984 -1.178609 -10.244178
-8.978099 2.906367 -8.920081
-6.907222 2.831141 -9.532739
-5.932820 1.229800 -10.136167
-5.783956 1.213070 -10.272510
-11.679843 1.803250 -11.062497
-6.643510 2.611034 -9.787851
-6.011753 2.380943 -9.809266
-6.506805 1.322606 -9.668248
-7.194997 -0.742186 -8.903102
-6.115478 1.482151 -9.911864
-6.396586 1.796475 -9.790672
-6.988121 1.625779 -9.725198
-6.120255 1.418491 -9.925670
-11.808620 4.008556 -10.876279
-7.097274 1.837451 -9.587195
-14.226863 2.012696 -10.524602
-6.999936 -0.827856 -9.981409
-12.385191 2.917452 -10.694132
-6.880486 -1.074717 -10.090165
-10.907601 3.334110 -10.932566
-6.276654 0.586368 -9.945693
-6.404813 1.079925 -9.757086
-8.502191 1.354862 -9.425061
-15.097215 3.685104 -9.792473
-6.380324 -0.951567 -9.684631
-14.893037 3.071100 -9.730279
-6.039838 0.496857 -10.135183
-6.237235 2.594185 -9.484825
-8.440897 -0.285166 -9.492935
-8.087964 -0.032987 -9.786907
-12.737288 2.443235 -10.714180
-10.667759 1.767619 -10.416158
-9.333881 0.801366 -9.090151
-9.122858 -0.104853 -9.283460
-7.211321 2.235578 -9.410270
-12.166416 4.413548 -10.943332
-6.094769 2.788241 -9.078368
-11.183479 3.056878 -11.010305
-10.823245 2.153887 -10.647763
-9.026501 -1.154837 -9.408835
-7.328839 1.065890 -9.472991
-8.692460 0.348344 -9.328887
-7.477095 -1.328231 -9.731106
-5.779108 -0.680513 -10.382435
-7.121757 2.534668 -9.397306
-8.902354 0.828344 -9.228731
-6.208296 -1.546516 -10.260780
-9.473266 0.489406 -9.110326
-11.577710 3.180828 -10.875603
-13.980776 3.660447 -10.092655
-12.097531 1.968935 -10.820993
-8.750883 2.208376 -9.144408
-8.305425 -0.037238 -9.581317
-8.247797 2.324582 -9.118625
-7.421672 0.641401 -9.470172
-7.060783 -0.114423 -9.578910
-8.946407 1.225085 -9.264546
-5.944457 1.679388 -9.918895
-9.250695 1.444399 -9.105545
-5.888892 0.749497 -10.110789
-8.869109 1.719240 -9.220947
-8.433453 1.669479 -9.371920
-7.357690 -0.823111 -9.528305
-6.746518 0.645324 -9.876589
-12.536400 1.887852 -9.684039
-5.873159 0.479868 -10.250228
-6.943508 2.411910 -9.632639
-8.546240 0.697467 -9.206869
-7.423184 -0.511985 -10.059937
-8.658850 2.609832 -9.243742
-8.158707 2.597365 -8.743801
-5.897827 2.130612 -10.157653
-8.608715 0.052747 -9.333319
-5.703901 3.127102 -9.631244
-9.529311 -1.040762 -8.993418
-6.944242 2.737760 -9.691313
-6.685740 0.878783 -9.565156
-5.967123 -1.155187 -10.098339
-9.039216 2.934880 -9.041308
-6.942156 2.863148 -9.666325
-5.931660 1.230691 -10.130799
-5.781940 1.214118 -10.261032
-6.668385 2.635123 -9.897019
-6.025698 2.397833 -9.893205
-6.511907 1.324034 -9.692514
-7.174285 -0.738006 -8.839383
-6.119453 1.485100 -9.935872
-6.405424 1.802420 -9.834189
-7.000395 1.630967 -9.773066
-6.123498 1.420912 -9.945597
-7.115554 1.845887 -9.653779
-14.120333 2.001614 -10.407031
-6.967809 -0.813292 -9.861797
-12.476603 2.949729 -10.822293
-6.846134 -1.054733 -9.955055
-6.269304 0.585940 -9.908941
-6.406194 1.080005 -9.765210
-8.478830 1.348680 -9.370088
-14.860647 3.613265 -9.559136
-6.358225 -0.938051 -9.580515
-15.110058 3.130389 -9.943562
-6.030695 0.497410 -10.081937
-6.258164 2.617010 -9.591020
-8.402593 -0.281123 -9.404516
-8.058476 -0.030634 -9.710752
-12.715526 2.440105 -10.684982
-10.700797 1.771714 -10.474184
-9.110987 -0.100652 -9.267052
-7.239040 2.251412 -9.504249
-6.118144 2.816353 -9.199073
-10.830285 2.158316 -10.661140
-8.951011 -1.132817 -9.256105
-7.334804 1.065402 -9.494399
-8.671378 0.345638 -9.284714
-7.429909 -1.303645 -9.584735
-5.762299 -0.666551 -10.265178
-7.153435 2.557071 -9.507335
-9.005023 0.837271 -9.453645
-6.175931 -1.512339 -10.084214
-9.442676 0.484785 -9.055826
-14.033276 3.677750 -10.147317
-12.065721 1.965164 -10.775891
-8.792432 2.221979 -9.234588
-8.274998 -0.035804 -9.508429
-16.795964 2.698995 -8.940461
-11.795240 -0.726936 -9.243207
-16.996054 2.493198 -8.963772
-7.290882 -0.861291 -9.703646
-15.132711 0.258541 -7.910421
-8.888637 3.449295 -8.855212
-7.886709 -0.791652 -9.376147
-12.321408 -1.703516 -8.778368
-6.712586 2.536335 -10.004869
-12.332047 -2.134874 -8.806182
-7.150810 1.583773 -9.712448
-12.104718 -2.378085 -8.951281
-12.000289 -1.986033 -9.006842
-8.488551 -0.682162 -9.408538
-6.958900 -1.003395 -9.998356
-7.036948 1.867309 -9.819945
-16.014875 2.102058 -8.964989
-11.745838 -2.374710 -9.125454
-12.441104 -2.111379 -8.563450
-7.068009 3.292180 -9.200144
-6.212471 3.014659 -7.725758
-15.945195 3.020919 -9.104176
-7.555208 2.936480 -9.084823
-8.419186 -0.269611 -9.446030
-14.007715 3.024960 -10.454054
-7.399892 0.934473 -9.546473
-12.712737 -1.440287 -8.627307
-7.339330 1.840379 -9.505607
-7.308509 1.519861 -9.577740
-7.268596 -0.458174 -9.682293
-7.874346 -0.438495 -9.375606
-8.559867 0.744037 -9.244816
-8.995792 0.384425 -9.100395
-9.049810 -0.288961 -9.209404
-8.143087 3.735527 -9.329912
-8.684952 2.600126 -9.225903
-8.547895 0.385421 -9.265271
-11.828706 -1.154933 -9.158077
-14.633815 -1.925425 -8.112232
-13.898184 3.765411 -10.081208
-14.796957 -0.067424 -8.273773
-15.668881 1.493907 -8.652514
-8.394476 2.726165 -9.379538
-8.731482 -0.221545 -9.279342
-16.030254 2.585541 -8.973953
-14.821386 1.486437 -8.696614
-12.477796 2.478609 -10.704853
-7.474734 0.645089 -9.695821
-7.044619 -0.111801 -9.502286
-9.254153 1.452005 -9.118058
-8.847912 1.713659 -9.164903
-9.498174 -1.033103 -8.931985
-6.653215 0.869731 -9.368429
-14.125175 2.008041 -10.413694
-8.458240 1.345161 -9.310297
-14.689941 3.562955 -9.373375
-15.389077 3.207232 -10.242561
-9.049424 -0.095684 -9.125349
-9.091712 0.848534 -9.680205
-17.009192 2.738727 -9.115444
-11.681343 -0.711828 -9.079651
-17.098419 2.507914 -9.046005
-7.269823 -0.850998 -9.615781
-15.039816 0.257993 -7.832775
-8.918983 3.469721 -8.923996
-7.917949 -0.807389 -9.479530
-6.715997 2.540287 -10.021980
-7.150752 1.583376 -9.710995
-12.065828 -2.365709 -8.903765
-11.964397 -1.976412 -8.961798
-8.465178 -0.676308 -9.344914
-6.935916 -0.988335 -9.884385
-7.037759 1.867663 -9.822307
-16.087281 2.110326 -9.028383
-11.699648 -2.358344 -9.063541
-12.416063 -2.106165 -8.537105
-7.086998 3.314791 -9.281024
-6.238715 3.058219 -7.881104
-15.981261 3.031326 -9.135526
-7.574735 2.952747 -9.152507
-8.398740 -0.268898 -9.387633
-14.024628 3.029795 -10.472759
-7.396057 0.933028 -9.530650
-12.696535 -1.439434 -8.611597
-7.343838 1.842155 -9.522513
-7.309619 1.519738 -9.581257
-7.251855 -0.452748 -9.611868
-7.858802 -0.435223 -9.325021
-8.554864 0.742288 -9.231228
-8.973619 0.377884 -9.045699
-9.031500 -0.287387 -9.167128
-8.166855 3.757875 -9.398594
-8.640479 2.575264 -9.108270
-8.538641 0.384212 -9.240539
-11.801503 -1.150865 -9.122332
-14.645478 -1.932235 -8.128057
-13.936060 3.778862 -10.123734
-14.833326 -0.072834 -8.309663
-15.736404 1.497523 -8.712404
-8.408894 2.734360 -9.418169
-8.714193 -0.220051 -9.235724
-16.153643 2.600040 -9.080411
-12.465019 2.475795 -10.683792
-15.263127 -1.409542 -7.403776
-8.574329 0.053877 -9.250479
-8.471206 1.690949 -9.544480
-11.644311 -0.282868 -9.299927
-14.401037 0.624594 -8.028576
-8.962099 -0.644737 -9.332712
-17.625801 3.638643 -8.039409
-15.274871 -0.398522 -7.487929
-11.459893 -0.519610 -9.352390
-12.660685 1.884399 -10.825110
-14.514562 0.288433 -8.030093
-9.406935 2.994864 -8.936966
-17.462732 2.283784 -7.967603
-8.632611 1.409561 -9.388486
-8.872521 1.204726 -9.042167
-17.295451 0.338007 -7.554882
-12.360938 -2.093166 -8.147866
-17.306745 2.349142 -8.553047
-17.456173 2.718835 -7.999696
-15.882739 0.156588 -7.397253
-12.349596 -1.754210 -8.334401
-8.046030 -0.049504 -9.876124
-14.096551 3.025687 -10.562977
-8.415829 2.414048 -9.736249
-11.479609 -1.079086 -9.260563
-12.054631 -0.663098 -8.983948
-17.062509 1.100434 -7.775279
-17.312778 1.738790 -8.296408
-9.276662 0.807194 -8.968672
-8.580309 0.483404 -9.170719
-7.788951 -0.435822 -9.449521
-12.716005 2.450645 -10.726801
-8.895416 -0.301886 -9.275135
-8.544605 0.930717 -9.241056
-17.302747 3.817884 -8.574332
-11.752857 -1.069424 -9.086731
-15.025666 -1.862789 -7.418657
-14.913140 0.604870 -7.718138
-17.603468 1.877917 -7.809511
-8.763017 0.734904 -9.116640
-15.637506 1.499157 -8.500397
-8.477913 2.772038 -9.587981
-16.083505 3.953695 -9.630580
-15.091802 0.783598 -7.485321
-17.561275 3.413550 -8.725576
-9.257593 1.461347 -9.131388
-11.639828 -0.707213 -9.008209
-14.925126 0.263196 -7.723261
-7.956179 -0.829624 -9.647626
-15.977416 3.034117 -9.129328
-8.400216 -0.270323 -9.393245
-8.966037 0.375480 -9.022173
-8.611762 2.557969 -9.011346
-16.211515 2.608469 -9.133873
-15.227350 -1.404517 -7.373712
-8.576762 0.054232 -9.259977
-8.493505 1.700457 -9.621332
-14.388457 0.623474 -8.015744
-8.960013 -0.643523 -9.329219
-17.557197 3.616690 -7.983472
-15.250140 -0.397905 -7.466612
-11.313257 -0.495770 -9.103836
-12.657546 1.882353 -10.820173
-14.498486 0.287752 -8.014063
-17.318517 2.258852 -7.855539
-8.640223 1.412481 -9.414046
-8.879613 1.206846 -9.063430
-17.503095 0.334373 -7.706115
-12.326344 -2.081329 -8.104095
-17.339579 2.353593 -8.577428
-17.492963 2.724652 -8.025029
-12.319697 -1.745447 -8.295909
-8.050383 -0.049378 -9.897138
-14.068709 3.019335 -10.525452
-11.461937 -1.074811 -9.233077
-17.070638 1.099367 -7.780114
-17.335035 1.740077 -8.312074
-9.279400 0.807864 -8.976778
-8.584259 0.484035 -9.184506
-7.792852 -0.436319 -9.468040
-12.729786 2.456160 -10.750274
-8.895062 -0.301209 -9.276269
-8.550616 0.932226 -9.261616
-17.357026 3.832871 -8.615406
-11.733201 -1.064991 -9.057569
-15.084834 -1.879068 -7.472383
-15.058807 0.611662 -7.855212
-17.629076 1.879461 -7.826210
-8.767282 0.735790 -9.130507
-8.490681 2.782373 -9.632374
-16.129945 3.969717 -9.674772
-15.079815 0.781912 -7.474297
-17.614401 3.426081 -8.765555
-8.899812 1.735834 -9.346254
-18.228078 3.602498 -7.534085
-13.112764 2.657104 -10.542029
-8.671065 3.372428 -9.486208
-16.776269 2.404636 -8.749128
-12.096507 3.799677 -10.411806
-16.163015 0.631874 -7.852422
-13.356976 2.769766 -10.415693
-11.317686 2.115613 -10.654906
-15.585438 0.317097 -7.942081
-17.791276 3.203437 -7.589462
-12.278617 -1.674954 -8.752445
-11.441507 4.284440 -10.944814
-12.002338 -1.899002 -8.986009
-8.500225 -0.688152 -9.448644
-12.276486 -2.136512 -8.781542
-15.758545 -0.470553 -8.078219
-11.477249 1.761270 -10.662098
-13.243596 1.989781 -10.587906
-10.965197 3.358450 -10.898084
-12.303086 2.862815 -10.419383
-17.041870 2.802499 -8.462639
-14.129132 1.988693 -10.381051
-8.664247 1.418051 -9.457959
-10.824806 2.795675 -10.770889
-13.234997 2.160537 -10.607689
-15.798614 -0.955028 -8.033484
-15.051486 -1.522364 -8.133798
-10.486385 3.148928 -10.771741
-14.939264 3.630839 -9.623382
-11.626171 4.286496 -10.826131
-17.846994 -0.240522 -7.895571
-11.578633 -1.637275 -9.154894
-14.989394 -0.590859 -8.441552
-16.028897 2.105530 -8.932693
-15.121802 -1.015620 -8.403857
-17.188567 2.311100 -8.449042
-18.802918 2.289997 -7.382902
-11.614432 0.206322 -9.461235
-16.227761 -1.910350 -7.556595
-17.445011 2.655874 -7.914099
-11.580555 -1.105328 -9.422064
-17.611002 -1.044338 -7.581117
-16.705420 1.624167 -8.344259
-18.710931 -0.989277 -7.527803
-11.727104 1.298965 -10.613583
-17.101559 1.052167 -7.865402
-17.619268 3.575389 -7.580861
-16.906733 -1.238032 -7.388883
-12.653523 -1.461925 -8.610569
-10.963984 1.833035 -10.876784
-16.904931 0.334510 -7.811161
-10.139817 2.536222 -9.961042
-16.987789 -0.178139 -7.684417
-15.862506 -1.915566 -7.759101
-11.079607 2.546566 -10.674032
-14.924047 0.210142 -8.213914
-8.585361 0.726235 -9.255706
-18.728920 -0.574775 -7.390616
-11.707342 0.877973 -10.485825
-9.248942 -1.141201 -9.254452
-8.919879 0.488019 -9.161538
-8.875616 -1.173855 -9.343176
-15.897263 -1.436117 -7.646115
-8.732821 2.637686 -9.442943
-11.914417 -1.181999 -9.254476
-11.797218 0.823345 -10.418209
-11.456463 2.748189 -10.464911
-17.125069 3.458256 -8.359329
-11.488358 3.115128 -10.469623
-13.952308 3.642968 -10.044602
-18.433544 -0.349086 -7.647673
-9.407367 1.903002 -9.121832
-8.902171 0.841972 -9.164284
-8.830684 0.230609 -9.298202
-18.004159 1.933288 -7.548291
-8.854185 2.313492 -9.443502
-14.962896 2.057527 -10.154840
-15.621448 0.771044 -7.866711
-14.835935 -2.087314 -8.485782
-12.375146 2.411207 -10.438777
-15.224579 1.525865 -8.820604
-9.111684 2.032600 -9.259441
-9.273224 1.470544 -9.185011
-11.644250 -0.712851 -9.017346
-8.529557 1.713930 -9.771182
-17.486962 3.597244 -7.920497
-11.080370 -0.447853 -8.646169
-12.654503 1.881237 -10.814583
-17.355577 2.256924 -7.878803
-8.881963 1.207962 -9.071117
-17.884533 0.321241 -8.014364
-14.046483 3.013462 -10.490984
-15.066086 -1.871662 -7.458298
-8.904374 1.736235 -9.361079
-18.400660 3.643897 -7.658923
-13.137663 2.665780 -10.584308
-8.669679 3.370025 -9.479778
-16.857044 2.418379 -8.824215
-12.102187 3.804614 -10.423463
-16.106238 0.631361 -7.800049
-13.381299 2.778427 -10.455043
-11.331992 2.120612 -10.688564
-15.505492 0.319097 -7.863774
-17.909016 3.228724 -7.677851
-12.228002 -1.664404 -8.674421
-11.463177 4.301237 -10.994702
-11.945520 -1.876142 -8.890632
-8.534292 -0.704744 -9.584261
-12.204701 -2.106229 -8.668049
-15.677794 -0.462184 -7.999812
-11.491393 1.765153 -10.694583
-13.268581 1.995878 -10.629989
-10.983816 3.370212 -10.945189
-12.309836 2.866740 -10.432911
-17.136287 2.821342 -8.545766
-14.164477 1.995988 -10.432562
-8.678074 1.420579 -9.509393
-10.842352 2.804640 -10.816106
-13.262167 2.167751 -10.653435
-15.708721 -0.941404 -7.947175
-10.501248 3.158413 -10.813023
-14.993540 3.650350 -9.689244
-11.643847 4.300290 -10.865258
-17.563670 -0.210421 -7.671562
-11.538382 -1.621724 -9.081554
-15.049037 -0.589724 -8.503775
-16.605042 2.183609 -9.521498
-15.144859 -1.017150 -8.427551
-17.278327 2.324796 -8.527065
-18.976315 2.311785 -7.501309
-11.584193 0.208388 -9.404901
-16.100663 -1.880353 -7.445541
-17.534710 2.671584 -7.985878
-11.550082 -1.096361 -9.365546
-17.118806 1.661346 -8.717828
-18.750566 -0.995036 -7.555924
-11.738360 1.301175 -10.638716
-17.080180 1.058597 -7.845513
-17.732561 3.603739 -7.666837
-16.814532 -1.223497 -7.314451
-12.571007 -1.437286 -8.488839
-10.986673 1.839425 -10.933891
-16.876043 0.334758 -7.786183
-10.128174 2.531486 -9.930983
-16.941722 -0.175491 -7.645895
-15.738185 -1.884980 -7.644119
-11.094006 2.553076 -10.709381
-14.840491 0.213519 -8.123945
-8.603187 0.725631 -9.322360
-18.776937 -0.580071 -7.423898
-11.713354 0.878943 -10.500047
-9.268002 -1.150976 -9.313443
-8.931739 0.486445 -9.200675
-8.904679 -1.190626 -9.444354
-15.777542 -1.412517 -7.536875
-8.734469 2.637575 -9.447874
-11.871479 -1.169529 -9.179767
-11.800791 0.824130 -10.427224
-11.462882 2.751917 -10.480063
-17.240860 3.487902 -8.459444
-11.495478 3.119761 -10.486095
-13.987287 3.657846 -10.094378
-18.484251 -0.353628 -7.684627
-9.396543 1.898120 -9.089076
-8.909491 0.841325 -9.187975
-8.848914 0.227375 -9.361759
-18.091521 1.942290 -7.612500
-8.855260 2.312952 -9.446304
-15.016333 2.067356 -10.223595
-15.682262 0.765267 -7.924800
-14.963702 -2.119920 -8.625945
-12.382830 2.414706 -10.454046
-15.205086 1.524320 -8.798598
-9.108142 2.029961 -9.246945
-17.572640 3.447248 -7.003481
-14.754430 -1.274187 -6.857853
-16.640689 3.380379 -7.136364
-18.834888 2.771452 -8.355187
-12.681567 -2.261432 -10.234709
-14.205646 -1.785092 -7.067958
-12.821480 -2.129536 -11.651659
-17.122596 3.062355 -8.580871
-20.883559 2.562934 -8.939407
-16.332427 3.054362 -9.308507
-15.929754 0.112017 -7.468526
-14.845545 -1.551839 -6.342356
-17.991641 2.614011 -8.333464
-18.257577 1.879673 -8.819368
-14.919349 -1.214898 -6.166066
-17.828444 2.808594 -8.784965
-16.251167 1.559712 -9.133604
-16.345248 0.218744 -7.313029
-17.779368 2.532985 -9.658051
-16.692459 3.608495 -8.010919
-14.821087 -0.689807 -6.538391
-15.282784 -0.453945 -6.140873
-15.888097 1.058014 -7.441604
-15.791258 1.593340 -9.687393
-14.431567 -1.645307 -6.814753
-17.516869 2.276464 -8.017991
-12.236905 -1.670478 -8.695192
-16.716626 -0.140699 -6.965001
-15.075117 -0.588765 -8.537365
-16.380097 2.153865 -9.273968
-14.905055 -0.970506 -8.163095
-16.617981 1.619662 -8.237683
-16.804467 1.053502 -7.600551
-16.318631 0.770599 -8.575131
-15.006654 -2.133287 -8.682382
-17.854238 3.513960 -7.215590
-14.697635 -1.262010 -6.803806
-17.197596 3.520648 -7.607322
-18.065948 2.646268 -7.734406
-12.629211 -2.228174 -10.122941
-14.122266 -1.760206 -6.980461
-17.218282 3.083878 -8.667042
-20.904407 2.564082 -8.948621
-16.135600 3.010861 -9.093261
-15.890268 0.113740 -7.431703
-14.828116 -1.548291 -6.329394
-18.031800 2.620401 -8.363707
-18.328098 1.886487 -8.878143
-14.896018 -1.210851 -6.147686
-17.871995 2.817013 -8.820211
-16.118941 1.549430 -8.989665
-17.562402 0.159079 -8.409468
-16.358078 2.312944 -8.252001
-16.785930 3.634876 -8.092803
-15.048252 -0.722866 -6.751310
-16.206887 -0.570280 -6.950300
-15.845489 1.055753 -7.402250
-15.561463 1.573583 -9.413992
-15.048921 -1.824399 -7.475711
-16.208549 2.612949 -8.333875
-12.401421 -0.943432 -10.491292
-15.622165 0.631374 -9.459784
-15.408755 -1.445216 -7.605573
-18.089337 2.700334 -6.865041
-15.595794 0.278378 -7.976619
-12.630499 -1.840521 -9.269367
-15.636339 -0.475194 -7.997056
-15.647217 0.242108 -8.573477
-12.944337 -0.930550 -9.866342
-18.805187 2.432085 -5.186500
-17.295328 3.154624 -7.254625
-15.614523 0.235899 -9.341544
-19.473443 1.721785 -5.548801
-15.117902 -1.554294 -8.253174
-18.410229 2.753899 -5.371206
-18.651260 2.278262 -7.329584
-16.052265 -1.894858 -6.774755
-16.341457 2.198318 -7.665314
-16.862231 2.361144 -7.377582
-15.824778 0.119281 -7.302636
-17.124303 0.813542 -7.527667
-16.601927 -0.771828 -6.474184
-16.299337 1.621263 -7.353203
-12.754566 -0.877300 -10.232553
-13.104125 -1.046697 -9.228890
-16.351354 1.167573 -7.202432
-17.202447 -0.794593 -6.464819
-15.655624 -0.274367 -7.447738
-19.056992 1.833470 -5.739291
-18.495452 -0.672277 -4.540356
-13.096064 -1.617206 -9.207068
-16.650452 3.652641 -7.856520
-18.694139 2.076092 -6.760874
-12.376561 -1.316534 -10.282443
-17.281710 -0.398576 -6.421961
-18.339014 -0.455031 -5.233380
-18.501849 1.309857 -6.226028
-19.759436 0.702759 -5.420933
-17.620988 -0.078040 -6.111074
-19.262582 0.993925 -6.154845
-18.168147 2.675569 -5.799525
-16.733628 1.733175 -7.127539
-17.730583 -0.427296 -5.640048
-15.783388 1.501140 -8.508805
-15.645968 0.622445 -8.490118
-12.636796 -1.287092 -10.082210
-17.397649 0.038973 -6.680015
-19.025200 -0.325910 -5.029572
-18.617984 1.968812 -6.028264
-18.512625 2.342794 -5.610058
-19.574993 1.823461 -4.630783
-17.811980 -0.685131 -6.255925
-15.737188 -0.601247 -7.053714
-17.856179 1.999706 -7.581027
-17.771489 0.626880 -7.538164
-14.664454 1.986027 -9.665011
-18.390661 2.789619 -6.638643
-15.364387 -1.785481 -7.354436
-15.945255 3.723350 -8.909602
-18.502603 0.056144 -5.167078
-17.311213 2.248099 -7.827811
-17.163376 -0.153221 -7.332059
-15.120670 -0.582948 -8.586828
-15.776506 2.058307 -8.590144
-14.924706 -0.966030 -8.176400
-16.184072 1.571232 -7.801545
-17.525498 3.620135 -7.889747
-17.751657 2.582971 -7.474346
-12.507928 -2.182195 -9.901439
-15.967141 2.972928 -8.902899
-18.848686 0.124893 -9.598498
-16.559657 2.357082 -8.431224
-14.929429 -0.704386 -6.629602
-16.977899 -0.641215 -7.639562
-15.570961 1.037136 -7.135631
-16.300547 2.633696 -8.428502
-12.350960 -0.935008 -10.403850
-15.740325 -1.504912 -7.939273
-18.619490 2.804653 -7.254089
-12.646384 -1.848433 -9.303856
-15.302081 -0.449549 -7.650065
-15.637342 0.241383 -8.562639
-12.958811 -0.935333 -9.899986
-18.755870 2.425285 -5.156564
-17.259024 3.146300 -7.222797
-15.754677 0.230845 -9.512305
-18.833171 1.659490 -5.187631
-15.127819 -1.557516 -8.264193
-18.885384 2.838149 -5.657097
-19.278198 2.369080 -7.797100
-15.960132 -1.871912 -6.689466
-16.336954 2.198420 -7.659941
-16.929616 2.373854 -7.435318
-15.736572 0.115011 -7.221779
-17.206132 0.815457 -7.597487
-16.605342 -0.772025 -6.474027
-16.745499 1.682246 -7.754182
-12.775814 -0.883849 -10.282825
-13.250534 -1.083808 -9.474238
-16.888654 1.217074 -7.673984
-17.329074 -0.803067 -6.554882
-15.553092 -0.266441 -7.343739
-19.244213 1.853026 -5.849708
-18.135995 -0.638722 -4.346794
-13.163003 -1.639070 -9.320471
-17.168344 3.809555 -8.343076
-18.982111 2.112572 -6.960580
-12.278127 -1.292084 -10.100795
-17.415629 -0.409092 -6.520885
-18.059088 -0.434192 -5.063926
-18.225075 1.281204 -6.045244
-18.657481 0.674582 -4.825076
-17.582288 -0.076247 -6.080037
-18.972688 0.980113 -5.971851
-17.628076 2.575390 -5.446232
-16.687143 1.728121 -7.085594
-17.425689 -0.404002 -5.435241
-15.973261 1.531663 -8.707128
-12.591254 -1.277936 -10.008083
-17.537631 0.033310 -6.785989
-18.947420 -0.321636 -4.984347
-18.392390 1.940753 -5.880572
-18.267517 2.305194 -5.456865
-17.560470 -0.663562 -6.077890
-15.650674 -0.591357 -6.969370
-18.145003 2.037303 -7.816761
-18.006035 0.628781 -7.729724
-14.746110 2.002072 -9.780953
-18.854242 2.878361 -6.964756
-15.444124 -1.805594 -7.433567
-16.156729 3.796055 -9.146258
-18.126308 0.068169 -4.945597
-12.908129 2.595371 -10.199862
-18.020394 2.719083 -7.694538
-13.430945 1.946450 -10.297388
-13.754417 1.875768 -9.715722
-12.971922 2.418191 -10.282923
-16.735535 2.783942 -8.229211
-14.523237 3.454806 -9.041755
-14.538320 3.192569 -9.510812
-15.765325 -1.833841 -7.233163
-17.377267 0.386476 -7.658431
-17.533536 2.807658 -7.875960
-18.666764 2.311451 -7.381634
-15.786361 -0.167077 -7.463527
-18.043541 2.976467 -5.421683
-16.906521 2.307994 -8.167378
-13.347349 2.746812 -9.154514
-17.056829 -0.569584 -7.148636
-16.669516 1.628803 -8.248574
-16.852430 0.838493 -7.610760
-17.006312 -0.932379 -7.096573
-15.003168 0.170387 -8.205588
-18.680562 1.886077 -5.639733
-17.256819 -0.641301 -4.317430
-12.876409 -1.608181 -9.059999
-17.596006 -0.617873 -3.954145
-15.978334 -0.769707 -7.310311
-18.031069 1.916875 -5.895294
-17.918922 1.072036 -5.410275
-18.845196 3.186178 -6.607378
-16.407225 0.063104 -7.281893
-17.275268 1.829135 -7.601144
-17.717287 0.070645 -6.953206
-18.198848 2.677147 -5.772301
-17.319051 -0.549544 -5.461841
-17.806109 0.181210 -4.679552
-13.241995 1.939943 -10.603577
-16.389177 -0.534909 -7.014021
-18.053172 3.434557 -5.233805
-17.350860 -0.206380 -5.156308
-17.739822 1.881801 -7.344453
-17.049096 -1.064937 -4.918707
-17.734858 3.626529 -6.674270
-17.850656 -0.156203 -4.734954
-15.179682 -0.212329 -8.194803
-17.418606 0.910137 -6.280194
-16.481656 3.797471 -8.319222
-17.249243 0.272232 -5.477967
-17.544559 0.655392 -7.354697
-17.587139 -0.246013 -4.892924
-17.944162 0.507585 -3.714306
-18.659081 1.163723 -5.415451
-13.881992 2.574578 -9.740718
-18.029687 1.567137 -6.258826
-14.858479 -0.016637 -8.689689
-15.520438 1.579573 -9.320740
-17.432639 2.269919 -7.940298
-17.406095 -0.159024 -7.541915
-15.868122 2.076143 -8.693253
-15.041981 -0.982325 -8.326003
-17.807931 3.714865 -8.138829
-15.960954 2.970481 -8.896024
-16.820334 2.419369 -8.704410
-16.042119 -1.559905 -8.271747
-15.105654 -0.448534 -7.441342
-18.416743 2.369921 -4.943009
-18.142559 1.578174 -4.756538
-15.076610 -1.553075 -8.208038
-15.900135 -1.863488 -6.642172
-15.519592 0.113538 -7.006516
-16.867615 1.706381 -7.865185
-17.279479 1.262499 -8.041508
-17.732345 -0.840430 -6.858554
-18.208557 1.269514 -6.043463
-17.739882 0.629294 -4.293985
-17.791532 -0.083786 -6.237742
-17.518148 -0.671757 -6.038603
-12.865911 2.581643 -10.130447
-18.104398 2.741883 -7.767196
-13.416174 1.942360 -10.283206
-12.942516 2.409578 -10.238774
-16.771428 2.789950 -8.269311
-14.501647 3.445297 -9.019055
-14.487335 3.174847 -9.446033
-15.810456 -1.848428 -7.281034
-17.284330 0.385446 -7.576772
-17.608261 2.821013 -7.946605
-18.804736 2.328966 -7.490926
-15.762852 -0.167699 -7.441871
-17.845173 2.931008 -5.289725
-17.012488 2.325676 -8.276054
-13.340184 2.747944 -9.151166
-17.311674 -0.592939 -7.374384
-16.666219 1.630560 -8.249130
-16.914379 0.838954 -7.671296
-17.275759 -0.966585 -7.334843
-14.872143 0.169745 -8.051440
-18.700533 1.879126 -5.652167
-17.236647 -0.636228 -4.299625
-12.754812 -1.577340 -8.862430
-17.569316 -0.612171 -3.932832
-16.004044 -0.775171 -7.338081
-17.943488 1.903774 -5.832525
-17.843488 1.067108 -5.357315
-18.964600 3.210996 -6.692967
-16.472781 0.059941 -7.346129
-17.414660 1.846698 -7.729709
-17.919926 0.063373 -7.117865
-18.086610 2.653834 -5.694962
-17.373611 -0.553425 -5.497044
-17.763432 0.183472 -4.648982
-13.218183 1.933075 -10.572148
-16.434512 -0.540763 -7.057010
-17.776206 3.360149 -5.054736
-17.610756 -0.217489 -5.326507
-17.756337 1.880446 -7.359487
-17.111196 -1.070978 -4.956009
-17.848851 -0.154778 -4.728977
-15.085289 -0.210199 -8.087553
-17.331231 0.903816 -6.211290
-16.477522 3.793754 -8.318921
-17.198667 0.273298 -5.439145
-17.625121 0.653914 -7.424889
-17.584995 -0.244465 -4.887088
-17.701571 0.506275 -3.582685
-18.743663 1.169149 -5.465496
-13.856215 2.566824 -9.708545
-17.997960 1.561807 -6.234502
-14.725379 -0.015824 -8.524135
-15.515372 1.574948 -9.321233
-16.642933 2.745248 -8.783638
-20.292391 3.200426 -2.669981
-14.752446 0.511541 -7.003706
-17.356439 2.779472 -2.865280
-14.228890 0.205535 -7.612745
-17.507447 1.606705 -3.016659
-17.178530 2.237690 -3.003268
-17.016840 2.832713 -8.516195
-17.532943 -0.168833 -7.657459
-17.094393 -1.206371 -2.531359
-14.755860 -0.888923 -7.269533
-15.502435 0.076974 -6.890191
-18.902178 2.357876 -7.659214
-16.188861 -1.057435 -2.707210
-16.017957 3.069033 -9.145725
-19.739873 3.321798 -3.345671
-17.334967 1.820426 -7.961799
-17.668815 1.201990 -7.383132
-14.977077 -0.848337 -6.986053
-17.371171 0.833653 -7.707552
-18.045641 2.924187 -8.311677
-16.885880 1.214956 -7.581242
-17.696124 1.221631 -2.960192
-15.814604 -1.083443 -6.441864
-16.987265 -1.022213 -2.751664
-15.151876 -1.314844 -6.151671
-15.144071 -0.332832 -6.879578
-16.852470 -0.923246 -4.361581
-17.890799 0.392545 -3.035293
-16.730877 0.755899 -7.590709
-16.961112 -0.622280 -3.991799
-17.425247 2.986354 -8.382798
-17.369051 1.599803 -6.293059
-21.442571 4.944509 -2.764138
-16.495159 0.323632 -7.312319
-17.655496 -0.149611 -2.846950
-17.667179 1.865635 -5.679309
-17.280766 1.391296 -3.214991
-16.662445 -0.668855 -4.566670
-14.358756 0.510835 -7.020555
-17.319254 -0.581167 -3.797764
-17.232000 -0.558096 -3.137081
-17.452980 -0.055220 -6.045348
-18.090469 0.910463 -2.846255
-17.560621 0.963838 -5.043255
-18.689543 2.654048 -6.212943
-17.574069 2.811762 -2.748294
-14.916241 -1.882454 -7.339982
-16.380308 -1.056987 -4.896729
-17.778488 -0.360849 -7.163003
-17.991791 1.962951 -7.630757
-14.478102 0.021629 -7.233419
-17.899566 0.003682 -7.081050
-19.109848 3.225252 -6.884016
-15.054615 -1.899691 -6.991351
-17.764759 -0.180664 -4.353422
-17.785368 0.802600 -7.545282
-14.495249 3.863804 -10.217911
-19.172302 2.808396 -7.125681
-17.986386 -0.696646 -2.632424
-17.462467 0.469954 -3.280696
-20.769383 3.757508 -3.008617
-17.358412 1.571234 -3.288662
-17.086878 0.229997 -5.221435
-18.291974 0.466591 -2.889264
-18.918183 2.470046 -2.734174
-18.292696 3.629305 -6.009840
-18.109026 0.341373 -6.934248
-17.254578 0.853070 -5.991722
-16.835009 2.213005 -9.227017
-15.195715 -1.049350 -5.248494
-17.021404 0.488310 -3.441556
-17.780318 0.891761 -7.019373
-16.138254 2.135592 -9.031035
-17.967766 3.765867 -8.291267
-15.052957 -0.449071 -7.381954
-18.613358 2.404128 -5.066818
-17.917463 1.551525 -4.613322
-15.497243 -1.771533 -6.234168
-18.118911 -0.890483 -7.196438
-18.182922 1.258404 -6.024448
-17.580165 0.621023 -4.186837
-17.631912 -0.687218 -6.133494
-18.136150 2.753695 -7.793010
-14.572493 3.479343 -9.123386
-14.483066 3.177744 -9.436653
-17.242673 0.391122 -7.535731
-16.711271 1.641855 -8.294321
-18.229217 1.792577 -5.322984
-17.323641 -0.203638 -5.126322
-16.686164 2.755965 -8.832682
-21.078990 3.368175 -2.967464
-14.762042 0.514954 -7.017841
-17.483789 2.813027 -2.930493
-14.202435 0.208641 -7.579952
-17.569766 1.616845 -3.048736
-17.373403 2.285664 -3.109572
-17.066820 2.844770 -8.569372
-17.423457 -0.171450 -7.552342
-17.345971 -1.241855 -2.653694
-14.678380 -0.876813 -7.177791
-15.484939 0.078881 -6.873495
-18.867522 2.348570 -7.628011
-16.199438 -1.056269 -2.714225
-16.286478 3.143156 -9.477241
-19.785131 3.331292 -3.363877
-17.343720 1.820751 -7.970156
-17.478659 1.191110 -7.213811
-14.912295 -0.838561 -6.914038
-17.320434 0.829274 -7.658473
-18.072395 2.928462 -8.335869
-16.956621 1.216585 -7.649227
-17.734496 1.226794 -2.979076
-15.764620 -1.075849 -6.394709
-16.977297 -1.019664 -2.746707
-15.094679 -1.303135 -6.095510
-15.112163 -0.328928 -6.846460
-16.843241 -0.921605 -4.356156
-17.861070 0.398164 -3.021335
-16.690438 0.753302 -7.550152
-17.610715 -0.664438 -4.409544
-17.476251 2.998392 -8.433989
-17.388463 1.602337 -6.309022
-21.429420 4.936480 -2.755465
-16.451681 0.323055 -7.269313
-17.668843 -0.149009 -2.853182
-17.709001 1.872059 -5.710402
-17.335405 1.399599 -3.244927
-16.670532 -0.668546 -4.573649
-14.370427 0.514941 -7.038255
-17.954068 -0.621403 -4.179211
-17.644456 -0.583644 -3.360672
-17.412709 -0.055079 -6.013201
-18.095612 0.911662 -2.847749
-17.572580 0.964974 -5.051457
-18.722739 2.659129 -6.235683
-17.693513 2.842900 -2.806722
-14.788512 -1.849793 -7.188981
-17.703689 -0.359334 -7.097267
-17.975873 1.958635 -7.615250
-14.455165 0.025064 -7.207509
-17.831415 0.002712 -7.022008
-18.460599 3.068521 -6.390142
-14.937062 -1.869828 -6.859780
-17.750038 -0.180350 -4.343928
-17.720428 0.797148 -7.485371
-14.583880 3.907172 -10.362921
-19.164006 2.803535 -7.116879
-17.955393 -0.693982 -2.617173
-17.487070 0.471973 -3.293950
-20.747195 3.749078 -2.996350
-17.419851 1.581199 -3.322447
-17.084100 0.230501 -5.219804
-18.274145 0.466488 -2.879650
-18.952735 2.476648 -2.747549
-18.409576 3.663104 -6.095273
-18.033350 0.338210 -6.870420
-17.244719 0.852488 -5.983773
-16.827703 2.210444 -9.217987
-15.177506 -1.044349 -5.234519
-17.070010 0.491710 -3.470362
-17.735611 0.887482 -6.980102
-14.349220 -1.233499 -6.294711
-18.446447 3.419202 -8.119111
-17.465439 2.263032 -8.091114
-19.187428 -0.785211 -2.116150
-20.927527 -0.390027 -1.978767
-18.468089 2.740617 -5.419005
-18.268209 -1.204454 -2.284228
-15.235009 3.657798 -9.872458
-18.246206 -0.619503 -2.284482
-18.380614 2.282605 -7.338145
-19.707560 -1.027512 -1.999819
-16.796670 -0.750611 -6.531469
-17.019318 3.109852 -8.428168
-18.223250 3.031535 -5.590859
-17.959864 2.687654 -8.400981
-18.209667 1.397295 -2.267059
-23.124928 -0.016251 -1.999193
-16.497127 -0.954250 -6.774216
-16.903875 1.723771 -7.839050
-17.817712 2.277906 -2.645444
-16.870807 0.748781 -7.180322
-16.870664 1.087863 -7.586805
-17.769176 1.243016 -3.004922
-18.607686 1.384000 -2.123872
-17.644668 3.005098 -8.488171
-15.834591 0.334788 -6.552385
-18.847474 0.766062 -2.071489
-16.902905 -0.040177 -5.561180
-17.797265 -0.124978 -2.972819
-16.986181 1.235655 -6.059162
-18.516074 -0.142194 -2.313008
-14.506369 0.002947 -6.451041
-18.288469 2.028086 -6.602573
-17.319795 1.081754 -5.137134
-19.026434 -0.174680 -2.153133
-16.951873 -0.308032 -4.228333
-14.432255 -1.716414 -6.740237
-14.174566 0.508328 -6.935594
-17.071758 0.019571 -6.331413
-18.805361 2.810615 -6.313691
-18.073168 0.570721 -2.192685
-16.244154 2.201180 -10.260230
-14.513425 0.685604 -6.763048
-18.160372 0.962711 -2.420915
-16.034625 3.922361 -9.096301
-16.157228 -0.519295 -6.646029
-16.600568 -0.555624 -5.132672
-17.572102 1.916905 -7.399528
-16.414145 -0.957984 -4.457401
-16.559485 1.634425 -9.376774
-17.861758 0.150366 -2.436438
-17.052265 -0.196182 -3.657801
-18.644989 2.062736 -2.225158
-17.408769 0.521837 -3.319894
-17.300188 0.816714 -4.520925
-16.727873 2.736979 -9.670678
-20.205037 0.968477 -1.988786
-16.938969 0.823038 -5.636953
-17.976735 1.619722 -5.581269
-15.152229 3.691123 -9.217439
-14.493841 -1.189717 -6.069672
-17.938782 1.830707 -2.794429
-17.847293 3.725657 -8.165089
-18.672781 2.406105 -5.104269
-17.604341 1.514432 -4.391733
-18.146963 -0.901550 -7.217635
-17.998934 0.633785 -4.472554
-17.139829 0.397865 -7.435279
-18.037955 1.737501 -5.169661
-16.821590 -0.184523 -4.726781
-21.971597 3.567881 -3.347787
-17.900610 2.380590 -3.414573
-16.983212 -0.151643 -7.109064
-17.706757 -1.293891 -2.849821
-17.264734 1.175185 -7.007392
-17.101209 1.226954 -7.804359
-17.801268 0.398736 -2.986634
-18.341195 -0.718981 -4.924100
-18.086783 -0.635024 -4.269927
-18.148462 -0.619475 -3.663519
-17.726398 2.894379 -5.786503
-14.331819 -1.234124 -6.270045
-18.499689 3.438789 -8.173793
-17.425306 2.257627 -8.051289
-19.029041 -0.773118 -2.047259
-20.195781 -0.353796 -1.717213
-18.055689 2.667695 -5.124182
-18.158609 -1.180752 -2.233673
-18.493762 -0.637225 -2.397717
-18.542266 2.314329 -7.486076
-19.617924 -1.019268 -1.962142
-16.630498 -0.727699 -6.374585
-18.276590 3.046608 -5.631493
-18.162174 1.390688 -2.242382
-22.955773 -0.010836 -1.943413
-16.556050 -0.963028 -6.833483
-16.840423 1.715217 -7.771799
-17.679790 2.250525 -2.571234
-16.906142 0.750296 -7.217125
-16.811438 1.082956 -7.524624
-17.670271 1.232006 -2.947674
-18.609760 1.382845 -2.122367
-17.211707 2.891565 -8.025893
-15.973678 0.334174 -6.701769
-18.679764 0.745382 -1.994552
-16.947843 -0.039281 -5.601112
-18.202877 -0.138051 -3.192915
-17.412759 1.280504 -6.443377
-18.327646 -0.137733 -2.223716
-14.391843 0.002502 -6.306317
-18.424740 2.051462 -6.718738
-17.245807 1.074702 -5.077811
-18.888466 -0.177012 -2.089990
-16.990331 -0.312437 -4.254240
-14.441504 -1.722377 -6.749281
-13.995304 0.497642 -6.688440
-17.258705 0.014699 -6.503451
-18.982264 2.851941 -6.453426
-18.152812 0.571008 -2.227774
-14.375049 0.673845 -6.583960
-18.144024 0.959842 -2.410687
-16.225794 -0.526803 -6.716989
-16.755366 -0.570493 -5.261693
-17.630764 1.927729 -7.458524
-16.745010 -0.992897 -4.718292
-17.752375 0.148945 -2.379425
-16.996460 -0.196323 -3.618784
-18.581546 2.051876 -2.194200
-17.440788 0.520484 -3.337271
-17.218242 0.810559 -4.459645
-20.046897 0.959861 -1.926251
-16.909702 0.820065 -5.610735
-18.020808 1.625631 -5.615065
-14.510152 -1.196810 -6.086578
-17.844781 1.815579 -2.742453
-17.949495 3.563933 -7.195397
-18.540752 0.262637 1.318995
-17.832548 3.430180 -7.675988
-19.702874 -1.162484 -0.849322
-17.879697 2.679732 -6.509990
-18.161669 2.739787 -3.504184
-18.065787 -0.754218 -3.065424
-18.913143 -0.747154 -2.013386
-18.116274 1.705159 -3.358834
-18.450423 1.803897 -2.648915
-17.181674 -1.210841 -3.005696
-18.096603 -0.715798 -3.114768
-18.237518 1.057680 1.361230
-19.930868 -0.383450 -1.188359
-19.140010 -0.609680 -1.724293
-20.481185 0.040151 -1.215582
-20.023125 -0.744438 -0.185717
-18.984618 -1.325888 -1.696552
-16.400307 -0.806265 -6.597728
-18.879831 1.095562 -2.237947
-18.369622 2.374415 -2.842296
-18.689380 -1.390292 -0.946516
-17.088489 -0.930035 -4.546844
-18.138122 1.313979 -3.332302
-17.306717 -0.650040 -4.288044
-17.373033 0.351203 -4.868476
-16.999471 -0.392445 -6.152504
-19.623676 -1.138945 -0.228562
-18.661035 -1.128114 -2.056049
-17.276143 0.612282 -3.886170
-17.832456 -0.936675 -3.286140
-17.231596 -0.498583 -4.805333
-16.992658 0.084854 -6.296596
-17.758997 1.978271 -6.001965
-18.228088 -0.593986 -2.841676
-18.259444 1.563960 -3.030968
-18.328462 2.808322 -3.023246
-17.375385 -0.188561 -5.164074
-18.158138 2.540403 -5.826563
-16.455190 -0.496296 -6.923897
-17.268889 0.270411 -5.438223
-18.673788 -1.029348 -0.438962
-17.926249 3.930865 -7.795980
-16.725340 -0.960290 -3.687545
-16.966975 -0.717671 -5.994334
-17.526051 0.928246 -4.948815
-17.312554 -0.220715 -4.254507
-18.089610 1.554193 -3.701364
-18.038418 2.856057 -6.151594
-17.724871 1.704372 -5.489662
-17.072436 -0.547147 -5.225777
-16.001024 -1.134090 -6.481038
-16.345915 0.156055 -7.056536
-18.457075 0.966830 -2.576282
-18.315055 0.964656 -2.991545
-15.752727 -0.962851 -4.479348
-18.090366 3.781625 -6.815613
-18.193884 2.416127 -4.001622
-17.301296 -0.215190 -4.574400
-18.007154 1.045266 -3.895147
-17.982065 1.653627 -4.126249
-17.068220 0.340563 -5.981664
-18.572679 0.567470 -2.451368
-15.650208 -1.073479 -4.793437
-18.669289 2.394154 -5.094528
-17.150791 0.400717 -7.442653
-17.691355 1.682619 -4.892673
-18.197823 2.430811 -3.613276
-16.908678 -0.150949 -7.018040
-17.955410 -0.625980 -4.165160
-18.196422 -0.626482 -3.693490
-20.097441 -0.338864 -1.668308
-18.270437 -1.180116 -2.297557
-18.706061 -0.653933 -2.513276
-16.525089 -0.714847 -6.258169
-16.968918 2.830316 -7.741918
-18.874293 0.736865 -2.078165
-16.857439 -0.030649 -5.520964
-18.479946 -0.147946 -3.370310
-17.603231 1.299563 -6.639391
-18.986335 -0.182319 -2.134607
-16.624895 -0.972435 -4.625818
-17.884424 3.549733 -7.135716
-18.588334 0.262037 1.310937
-17.770092 3.416578 -7.614734
-19.874017 -1.180143 -0.905574
-18.162055 2.746965 -6.777856
-18.111440 2.733439 -3.476664
-17.953910 -0.742977 -2.998056
-18.969527 -0.750850 -2.037876
-18.071281 1.701927 -3.333340
-18.459232 1.808346 -2.656276
-17.046068 -1.192514 -2.916253
-18.127464 -0.719126 -3.132686
-18.708291 1.096496 1.267152
-20.159554 -0.392365 -1.269908
-19.298748 -0.631032 -1.785709
-20.876011 0.037057 -1.353303
-20.233975 -0.758628 -0.242885
-19.060815 -1.335287 -1.727467
-16.428164 -0.813438 -6.625354
-18.960527 1.103918 -2.278429
-17.880640 2.298714 -2.575209
-18.657256 -1.385204 -0.931398
-17.039682 -0.926184 -4.505774
-18.096898 1.312125 -3.308560
-17.255763 -0.646938 -4.247950
-17.380529 0.349956 -4.875978
-17.068626 -0.399943 -6.219231
-19.768447 -1.153836 -0.268777
-18.674806 -1.129094 -2.060383
-17.206995 0.617107 -3.842162
-17.829975 -0.937377 -3.283510
-17.223077 -0.499860 -4.797704
-16.983371 0.088026 -6.291395
-17.726931 1.975230 -5.975824
-18.259264 -0.596661 -2.858882
-18.241787 1.564458 -3.022969
-18.304284 2.808180 -3.013450
-17.410524 -0.191854 -5.193756
-18.143727 2.529834 -5.810565
-16.485147 -0.502505 -6.954805
-17.314467 0.268540 -5.479676
-18.637159 -1.024963 -0.424140
-17.861853 3.915205 -7.733756
-16.568098 -0.942466 -3.568410
-16.786163 -0.697499 -5.821248
-17.434944 0.923056 -4.875447
-17.264024 -0.219821 -4.217548
-18.046857 1.551532 -3.675556
-18.017736 2.855467 -6.137460
-17.674036 1.699256 -5.448701
-17.088452 -0.550947 -5.239183
-15.952705 -1.130480 -6.422332
-16.352679 0.152133 -7.063555
-18.496515 0.970917 -2.599032
-18.315952 0.966377 -2.993459
-15.546747 -0.937374 -4.287111
-18.025152 3.767340 -6.759517
-18.149019 2.411637 -3.974809
-17.279045 -0.215742 -4.556774
-17.952302 1.042907 -3.859036
-17.919680 1.648080 -4.084704
-17.092568 0.338665 -6.005617
-18.703925 0.571569 -2.521445
-15.465100 -1.048592 -4.611257
-19.133873 0.273138 1.574202
-20.213759 0.393530 -1.828859
-19.410180 1.745669 1.659657
-19.091204 0.409444 1.517041
-20.261095 -0.311237 -1.757847
-17.836986 1.554749 -4.557000
-19.091243 1.183122 1.623421
-19.058004 1.747577 1.444505
-19.186265 -0.872900 1.851797
-18.165177 -0.594579 -2.220082
-18.037995 2.200710 -7.093123
-19.049101 -0.734082 -1.878534
-18.300694 2.742327 -5.366271
-16.887927 -0.772381 -6.514536
-19.137604 -0.283723 1.694711
-18.973985 -0.098103 1.348626
-17.307506 1.182869 -7.237986
-19.436432 2.153684 1.677022
-16.790538 -0.841414 -4.377725
-17.789582 1.892564 -5.934283
-17.251054 -0.848343 -3.283318
-17.515484 1.606329 -6.489437
-18.382331 -0.229919 -2.335991
-18.566704 2.818061 -3.168322
-18.084562 1.183703 -3.766519
-19.787568 0.121745 -2.010728
-16.899875 -0.464212 -4.989757
-17.636427 1.024388 -5.288362
-18.035297 1.524981 -3.933387
-18.387678 3.059827 -6.445276
-19.409905 2.132762 -2.673933
