ply
format ascii 1.0
element face 0
property list uint8 int32 vertex_indices
element vertex 1067
property float x
property float y
property float z
property uchar diffuse_red 
property uchar diffuse_green 
property uchar diffuse_blue 
end_header
-29.661924 3.036036 -20.082727  161  56  0
5.048351 5.279012 -21.510039  76  100  102
7.356214 6.593627 -23.532995  67  71  71
4.972395 2.191815 -22.226084  76  86  117
-10.551592 8.807268 -23.619285  103  88  82
-7.376947 6.630481 -22.844017  121  122  104
-27.313340 -13.337239 -24.735137  96  100  87
6.707109 0.224332 -21.751156  21  41  60
-16.469338 7.334119 -20.581450  53  48  35
5.345077 9.621285 -22.970147  37  55  36
-19.423574 -3.242239 -18.398948  53  39  22
-26.954104 -6.773391 -21.648165  120  75  79
2.355627 7.067824 -23.228830  85  73  71
-8.689140 -6.272977 -26.472019  186  179  173
3.107327 4.760667 -22.957335  141  171  189
2.369497 8.734218 -23.215266  75  65  49
-14.884114 -18.311577 -27.006322  87  86  54
-21.020077 9.092597 -19.097316  69  53  44
-12.631774 3.878047 -26.051990  54  34  22
-16.282759 0.539953 -22.428624  53  50  43
-3.930147 9.235334 -21.899006  46  29  26
-13.682000 -10.120527 -26.648335  141  121  112
-19.848848 -18.802665 -28.040286  184  187  188
-21.531163 4.980399 -19.721269  82  67  53
-23.102650 -12.975331 -24.502189  150  154  154
-21.915991 2.876651 -19.873811  82  74  70
6.099436 6.944695 -22.997283  127  149  149
-20.093247 -10.822810 -25.258221  134  133  131
-17.884721 10.930874 -18.400233  30  20  26
-15.478489 1.040391 -26.366071  102  33  0
-14.941546 -0.521538 -26.750368  59  57  55
4.152009 -0.461063 -22.172464  139  148  173
-18.011506 -8.596546 -24.296966  136  136  139
0.128742 -14.074783 -26.633121  73  75  83
-31.712401 -12.415189 -20.974332  152  69  12
-8.083882 -11.988541 -27.608758  166  152  140
-13.475839 -10.927466 -26.589297  127  131  129
-9.873245 -8.079500 -26.376868  197  192  184
-22.170046 4.554768 -19.803105  76  43  33
-20.639140 10.601871 -19.202908  61  38  17
-7.318202 -5.622107 -25.884381  196  191  183
-19.039346 -5.762573 -20.939273  227  227  231
10.005243 7.683346 -25.031064  76  77  71
5.293147 -1.474806 -22.427251  199  198  201
-15.654896 4.335010 -26.630269  64  8  0
-26.595404 -6.188105 -22.429337  152  151  158
-14.550544 3.888120 -27.151115  58  5  0
3.301926 6.765672 -23.163550  128  147  146
1.008071 0.235896 -27.457037  81  82  72
-19.201723 10.565176 -18.868924  88  79  77
-22.579605 1.578150 -19.269943  138  137  140
-33.327508 -2.613703 -20.855871  167  60  11
4.229319 8.781475 -23.138273  60  103  122
-27.697372 4.599857 -19.633091  72  36  11
-16.278542 -7.915993 -24.957060  195  197  203
-17.307546 -7.731457 -24.473364  196  198  204
-14.524169 2.585088 -27.081090  127  117  117
-26.542595 8.616670 -19.144601  48  23  5
-6.597984 1.321334 -22.606991  195  196  207
-29.693325 -6.210689 -20.516586  156  168  194
6.135927 -13.178240 -24.015041  228  222  190
-16.633987 -17.637666 -27.661586  10  12  20
-22.365595 -13.677761 -25.480585  158  160  158
-25.238773 -3.154888 -21.654525  150  149  156
-9.740695 11.002517 -21.373953  41  36  40
-32.269721 -11.007842 -21.008038  167  80  15
-27.636749 5.724350 -19.673978  59  34  19
-16.820128 -8.951809 -24.708404  150  148  155
1.799763 -1.506383 -22.973799  214  218  215
-0.959579 -18.080944 -25.021148  169  176  177
-0.413215 1.472940 -27.126673  164  166  156
-29.363129 9.479481 -18.461583  73  35  13
-29.691728 5.366235 -19.016148  144  129  105
-10.233207 -11.725094 -26.393681  160  142  131
-29.291350 4.221330 -19.657492  158  51  0
-4.390709 -11.251208 -25.084968  146  135  120
-8.462296 -10.525455 -27.788137  190  185  178
-24.288463 6.663983 -21.953739  73  16  0
-16.748001 11.111522 -18.892047  48  28  22
0.377315 5.029243 -27.199787  66  64  68
-13.246372 -1.282444 -26.963359  141  60  0
-6.458710 -12.151856 -27.828053  161  146  139
-2.506796 5.162603 -25.437467  5  3  15
-32.429408 -2.526479 -19.968911  167  60  11
-29.221468 -5.918941 -21.852501  167  163  167
-2.615231 9.178352 -21.978662  42  38  41
-27.130784 8.173327 -19.654718  29  6  0
-20.677135 -12.132958 -25.406604  89  87  83
-5.905530 1.425853 -22.682244  184  186  192
-5.434588 10.207893 -22.014459  20  24  29
-24.918302 -1.217354 -20.257127  140  137  141
-7.408751 10.673301 -21.333669  73  57  57
-16.955240 -4.523142 -21.000531  5  8  7
10.629434 3.672256 -25.248932  59  70  81
-26.258780 -11.761689 -24.202372  33  37  33
-22.354169 7.478000 -19.624741  61  33  12
-27.879462 0.187983 -19.592673  144  140  144
-23.342454 2.640997 -20.092561  104  102  101
-24.869783 1.812248 -20.087118  158  154  160
-27.779941 -3.976069 -20.175266  163  162  169
-31.344269 -14.484853 -24.692794  168  167  174
-26.991093 -8.067489 -22.055590  96  46  61
-26.833549 3.552583 -20.518750  153  145  153
-20.858634 -1.930901 -19.087738  101  87  76
-14.017339 6.749603 -23.727615  7  2  4
-3.897661 7.396219 -23.473206  43  32  49
-32.904849 -12.121227 -21.066217  163  72  21
-21.294738 -11.226368 -23.103723  103  104  103
-20.984026 -7.384555 -23.566984  196  192  194
-27.626130 3.701432 -20.190858  113  120  128
-23.271630 8.651694 -19.999868  67  33  12
-22.757320 -10.593006 -22.175200  7  10  12
-16.759546 11.136729 -18.934925  48  28  22
-10.865925 -6.288847 -26.305154  183  175  165
-7.935994 -13.778524 -26.698175  92  73  57
-12.088893 6.626756 -25.240214  44  40  36
8.867956 8.539892 -24.348209  51  70  86
-3.604321 -4.857057 -26.614129  213  202  200
-31.543188 -2.899342 -20.455046  171  64  4
-10.121007 4.342403 -23.338882  4  5  10
-1.566978 6.485162 -26.756331  22  14  16
-9.239868 1.111027 -23.034105  191  189  196
-8.276993 1.265992 -22.069464  211  213  221
8.226708 -1.418208 -22.312937  194  194  193
-29.019583 8.523196 -18.594737  132  28  0
-11.646699 -4.139131 -27.572917  165  151  144
-1.227315 9.038745 -21.916606  37  31  37
2.001276 3.633284 -23.424879  172  171  168
-14.040621 5.023309 -26.490281  63  38  18
-6.634881 4.752233 -22.664510  159  121  122
-6.324471 6.648725 -22.790499  147  172  166
-19.759414 -14.599916 -25.701534  159  165  169
-8.259223 0.099310 -22.646609  216  219  223
3.556363 0.324491 -20.861133  164  161  117
5.769990 -17.612223 -24.437624  163  149  84
-6.420284 4.450681 -22.586041  35  79  73
2.690582 -0.460874 -24.158308  203  204  200
-3.432098 9.973001 -21.350723  53  58  50
-21.823678 -4.301889 -18.127638  191  189  192
-6.505519 -0.010978 -22.858872  194  186  192
-3.524747 -6.706212 -26.912881  174  171  169
2.334897 1.742633 -20.809676  123  152  188
-5.346362 3.388523 -22.115537  104  94  84
-13.866736 -12.468141 -24.825587  201  210  212
2.694229 9.857894 -22.170353  220  215  227
-5.030608 -1.411555 -23.204733  185  150  151
-10.122775 3.974500 -23.047921  13  9  15
-26.598551 -12.013641 -22.901995  175  150  156
-3.374186 10.084692 -21.682946  15  13  11
-12.336513 -13.111080 -25.599625  196  187  185
5.357505 2.894126 -21.897495  101  97  108
-22.919491 11.817352 -16.828816  68  38  34
-6.798420 6.596778 -22.721693  201  192  197
-31.922244 -8.999267 -18.201364  176  85  24
-27.674225 -11.191066 -22.318585  161  140  144
2.712318 5.032941 -20.100610  129  144  159
5.403931 10.086373 -22.624624  37  55  98
-24.884329 -12.530868 -23.307644  197  202  206
-17.099264 -12.773180 -25.787304  162  165  168
3.438269 4.744623 -22.265258  108  129  144
5.192102 7.985853 -22.238756  131  135  123
5.892508 11.055892 -22.219774  152  162  139
5.615341 3.963795 -22.042709  165  184  191
-3.273653 11.106755 -21.056387  189  188  178
-1.007032 5.783796 -26.517238  31  25  28
-26.983736 7.213572 -20.467948  83  61  55
-19.021817 -2.850834 -18.954046  141  138  124
-20.629301 -3.439482 -18.616848  116  103  93
-15.847576 -3.292693 -20.594140  79  80  72
2.674146 3.383550 -22.460505  27  54  114
-13.420777 -5.984275 -26.743164  157  147  147
-23.037367 11.039402 -17.002953  75  38  29
1.999276 8.666003 -22.949910  76  101  115
6.497985 7.666321 -22.591448  111  120  135
-16.119249 1.609296 -21.480626  79  57  33
-23.659597 -12.745793 -23.987711  197  200  203
-20.820039 10.826388 -17.559491  223  199  216
-20.090065 -10.373511 -24.268486  107  103  116
-5.989233 -5.915292 -24.813872  138  138  141
-24.227382 3.763027 -21.351549  76  33  9
-7.733943 11.477527 -20.578293  209  198  186
-9.653139 7.383378 -22.930779  70  49  48
-14.358299 0.651401 -26.190304  162  122  96
-18.846771 -8.579180 -23.573549  127  126  133
-0.032978 -19.431664 -26.435733  76  104  72
-19.313361 10.472987 -18.564945  77  65  51
-27.256772 4.447125 -20.209868  135  45  0
-14.494765 -4.533588 -26.362599  138  130  129
-15.772772 3.224039 -24.519920  58  47  33
-9.690555 -13.561668 -26.568873  107  82  57
-5.379143 9.785305 -23.018626  62  58  77
-16.261701 0.451529 -22.488200  48  47  38
5.522552 6.897603 -22.259425  133  153  163
-27.527303 6.861751 -20.328258  58  31  19
3.156277 5.829601 -22.472555  121  137  140
-23.002354 -8.065817 -21.584189  39  38  39
6.943176 3.935730 -22.323923  100  107  123
-19.345541 1.870353 -17.741857  124  113  94
-20.093760 -6.980145 -22.379652  204  205  213
-15.566483 -1.020101 -21.439750  71  66  52
-11.344430 -10.316150 -25.910063  197  186  177
4.411711 8.116106 -22.403551  164  139  122
-11.928675 -14.619558 -26.123795  181  186  187
-32.102920 9.845860 -20.555292  113  39  3
-28.214515 8.517618 -19.410556  46  3  0
-23.899482 -6.861388 -21.647507  199  197  206
-17.332807 -17.777043 -26.515679  188  192  195
-28.396258 -0.822568 -19.669356  155  133  139
-7.579058 -14.401269 -26.454684  216  221  220
-29.203543 7.790604 -19.053099  147  53  2
-27.748627 5.445646 -19.693289  56  41  0
-28.920930 -4.974610 -19.539792  152  61  13
-30.604409 -10.301775 -19.156954  159  75  30
-16.184079 -8.361750 -22.567158  141  140  147
-13.165558 -10.411766 -25.767995  132  132  132
4.687595 11.201260 -22.164334  193  192  194
1.420778 -13.703738 -25.792316  74  74  72
-29.927431 -12.501006 -20.110456  149  88  65
-21.173522 -2.500412 -18.764751  150  144  139
-12.964384 -4.744090 -26.610195  153  121  105
-23.193885 -4.057807 -18.598666  173  171  180
-30.398521 5.322487 -18.672556  155  146  141
4.300867 -1.463641 -21.991908  199  199  191
-25.716733 7.837476 -21.119503  35  10  0
-28.999153 11.377824 -17.664141  78  46  6
-20.387801 11.105311 -17.842480  255  205  62
-31.652132 -6.252298 -19.298744  174  70  3
-6.121152 -5.892197 -24.834384  117  117  120
-20.994670 -12.843121 -23.846093  150  152  158
-13.056344 0.308958 -26.928027  149  116  96
-9.116353 10.801452 -22.315475  50  45  45
-30.303884 7.832495 -18.940123  150  56  7
-23.121095 10.024346 -20.338804  100  54  14
-29.415818 9.000250 -18.629240  45  24  13
-22.340344 11.555615 -17.031298  75  42  33
-30.007628 -11.023821 -19.254213  184  89  22
-30.122046 9.064977 -18.432292  33  14  10
-18.195382 10.808703 -18.094404  87  60  44
-23.734999 6.199110 -21.345996  79  28  15
-16.789110 13.235032 -20.402283  52  33  23
-20.150705 -8.742996 -23.389505  152  151  158
-14.341548 2.039103 -26.886738  114  104  90
-21.177751 -7.569047 -22.272885  128  126  137
-17.393131 -7.471591 -23.780001  196  194  204
3.278595 -0.640875 -22.970208  132  139  158
-5.265145 10.240065 -21.838960  56  43  43
-6.654544 10.186153 -22.803320  37  36  64
-24.527621 -2.958385 -20.716833  150  148  157
-28.549572 6.671612 -19.366130  141  130  118
-24.481360 3.134954 -19.770642  131  127  135
-18.421278 -7.427287 -23.506612  202  201  206
-30.506049 -2.750920 -19.518264  172  63  0
-24.065894 -11.227297 -22.862176  32  33  28
-23.062444 -1.127160 -19.242315  144  140  148
-21.836582 1.353383 -18.728690  128  122  125
3.746376 12.342364 -22.046163  32  27  33
-9.568661 0.162522 -22.889461  126  114  113
-23.751705 1.867244 -20.250664  150  146  154
-8.820041 -17.966989 -26.556209  225  232  231
-25.967262 8.681691 -19.379567  61  23  0
-28.645672 -6.934142 -19.553304  45  19  24
-28.939586 9.292973 -20.478269  42  9  0
-29.880148 -12.035736 -23.306729  117  117  120
-14.585273 5.847992 -18.532218  16  6  1
-26.532854 -10.871617 -22.785951  12  12  14
-29.806982 -4.423117 -17.875744  165  53  0
-19.800498 -14.554876 -25.738060  145  150  154
0.692184 8.643075 -22.407545  72  63  65
-5.377300 0.988520 -22.662876  133  134  147
-3.106547 -2.639506 -26.044928  215  220  222
-15.687689 -7.539981 -23.505921  196  193  207
-8.624654 1.268776 -21.657687  205  207  215
-6.503414 1.113896 -22.342536  181  183  192
-14.761530 3.861658 -26.599598  115  33  4
-15.975909 -2.022224 -21.301652  47  44  41
-15.252246 -3.015636 -23.518475  87  83  75
-5.118255 7.060413 -24.338195  168  134  118
-25.529636 -2.938352 -19.071516  155  155  158
7.446458 12.545603 -22.231920  43  30  35
-18.123777 -12.404772 -24.201658  142  143  147
-9.730729 -10.119990 -26.143856  61  62  60
-21.891580 -7.060353 -21.542753  199  198  205
-3.586913 3.799941 -23.832581  98  110  55
-22.621299 2.435381 -19.440276  104  96  99
-7.858845 11.332956 -23.813664  31  33  31
-30.998799 6.574655 -18.654978  180  73  11
6.235167 -0.134202 -21.678727  65  91  116
-5.247655 -12.146704 -25.792069  121  102  86
-25.285163 -3.151558 -20.301923  160  159  162
-5.934011 0.043307 -22.260546  205  182  176
-6.903983 4.259469 -21.634322  179  184  212
-7.714199 -2.634453 -21.956783  188  184  184
-7.038094 6.443765 -22.381826  182  200  151
-8.497426 3.483782 -22.132007  197  202  218
2.285181 0.406516 -20.816155  204  216  235
-19.714924 -4.238253 -18.350286  195  200  205
-4.792626 -1.271317 -22.200420  124  149  144
4.711700 0.104288 -20.945332  73  69  66
-5.093279 4.951074 -22.533807  83  55  66
-13.690552 -12.590833 -25.778308  199  204  218
-8.605737 5.230937 -22.219585  193  191  212
4.711086 0.244064 -20.935006  195  181  97
1.013900 1.357901 -20.836628  216  223  206
4.852444 1.494516 -20.720684  49  87  134
-6.954528 -3.574934 -21.884147  197  194  192
-14.945646 -12.638989 -24.818018  151  124  104
-3.862598 9.604944 -20.845513  19  25  35
-28.640216 -5.938339 -18.086736  174  72  7
-16.985904 -11.345734 -23.876463  148  150  159
-24.837729 -6.616548 -21.195932  78  39  61
-29.277954 5.781453 -20.138201  145  139  137
-10.670946 -0.568599 -22.627784  145  128  124
1.511176 6.566673 -21.545984  118  129  137
-32.374643 8.398891 -19.527249  166  105  85
3.847021 7.399176 -21.048908  72  103  7
4.394445 9.467397 -21.048510  31  51  79
1.630302 6.871916 -22.053362  35  65  83
-21.717740 -2.893899 -17.885281  160  164  172
-14.863313 -7.208596 -24.919442  194  196  205
-10.153433 4.160873 -22.872168  28  28  32
-22.409755 -8.716022 -22.658404  37  36  45
0.552170 10.694310 -20.610131  136  137  120
2.265408 1.258417 -20.917700  50  75  123
-17.196427 -2.416419 -15.874619  134  132  132
-18.627632 -10.884794 -24.076193  18  21  23
3.277097 5.349013 -21.187195  147  134  143
-4.935279 10.200584 -21.046058  85  59  55
4.494411 6.856588 -20.977238  107  131  96
-6.906994 -0.061228 -22.162973  245  240  225
-25.902403 -12.093127 -22.587587  109  113  109
-12.654887 4.853832 -26.734892  69  40  28
-28.990901 12.555451 -17.810603  154  135  109
-18.990742 -3.044782 -17.101452  38  35  25
-27.130998 6.262478 -21.737521  103  76  63
-26.967428 4.663732 -20.650062  98  42  21
-21.377874 5.075087 -19.492872  83  75  74
-25.312908 5.460745 -22.908866  121  66  50
-27.461133 7.349789 -23.673491  103  46  28
-20.353223 -9.650603 -23.145424  19  17  31
2.220467 4.411120 -21.642457  70  98  125
-23.615180 -7.549876 -21.217630  73  23  53
-17.768765 -8.245776 -23.566975  141  141  147
-7.580991 11.233375 -20.437806  71  55  46
-21.770670 3.843000 -19.131272  118  68  50
-21.747905 -2.008004 -17.702550  131  133  131
3.492412 10.103880 -20.683903  32  33  52
3.200152 7.876047 -21.203972  122  115  120
5.467986 6.005682 -21.330277  135  132  131
1.272867 0.386245 -20.990729  202  203  211
-24.918190 3.957526 -21.918045  87  52  38
-0.175915 10.595462 -20.701114  180  178  166
-30.640505 8.475456 -20.442744  111  68  58
-11.635725 -11.210006 -26.934965  173  162  152
1.442405 10.841741 -20.467544  27  33  48
-20.319596 12.312308 -20.558139  87  60  39
-28.139406 4.821885 -20.214688  94  43  3
-30.817726 -2.236727 -18.273071  175  70  13
-4.888649 5.252175 -23.104548  150  143  140
-16.228539 -9.237467 -23.625220  155  157  166
-13.369716 7.375113 -25.134572  60  51  45
-32.616476 7.521983 -19.543821  197  86  12
-24.240512 -0.537502 -15.591372  155  149  150
-25.591671 7.903119 -22.077814  55  14  0
-26.382683 5.646324 -22.165368  92  86  75
-13.349535 -11.063542 -27.420019  178  163  162
-29.669805 1.790837 -20.009839  164  57  0
5.740654 6.926336 -21.455554  114  132  139
-22.750506 9.910571 -19.906597  108  66  33
-26.791035 -3.177273 -17.668903  183  182  189
1.858224 3.636268 -21.870198  190  189  193
-24.794500 2.320233 -19.802850  152  150  164
-25.269097 8.647810 -20.007636  64  25  11
-16.994431 12.177016 -21.180337  39  28  24
-5.945952 10.948407 -20.459601  106  82  64
-18.415698 -13.568931 -26.463546  143  144  158
-29.183241 10.197172 -20.270041  102  58  24
4.843273 -0.816445 -20.663657  229  226  227
-30.456582 9.855799 -20.034727  63  33  15
-23.628887 -6.430945 -21.087277  195  197  204
-2.306454 8.716086 -20.577748  29  34  45
-13.553263 6.218269 -26.025683  75  54  33
-23.811899 -2.021076 -19.384765  134  134  140
-17.857882 10.396766 -17.603564  74  66  74
-22.677847 7.646832 -19.695860  56  27  1
-27.497836 9.401713 -20.828178  69  37  7
-29.596997 -0.444264 -18.047266  169  60  0
-10.545497 12.470874 -19.330670  61  42  40
3.462002 -11.186357 -25.003347  138  136  125
-16.622162 -4.192046 -18.301331  10  9  14
-22.768315 6.481244 -20.161022  49  0  0
-16.104320 -7.468152 -24.027850  197  198  213
-19.429172 -11.742118 -23.947227  103  107  115
-26.362169 -2.843118 -18.570348  170  169  174
-28.648252 -12.178670 -21.985428  172  177  190
-8.632453 0.861879 -22.154886  205  208  219
0.015362 8.044573 -21.578398  82  72  66
-31.938801 10.521501 -19.426743  94  53  17
-17.233893 -6.970817 -23.738869  212  208  225
-26.156236 4.919132 -22.645168  108  32  0
-31.605358 8.154517 -19.804129  154  110  102
-29.175591 -5.165052 -18.586121  180  74  8
-27.999964 3.895465 -20.444337  123  124  133
-11.036581 7.163720 -23.291400  70  43  39
-5.833100 10.241836 -21.257063  61  54  56
-21.516632 -12.855134 -23.717030  171  177  181
3.011941 -1.714654 -22.161721  204  204  206
-19.363214 -7.263468 -22.813376  192  191  194
-21.544263 -6.748408 -21.754391  200  198  202
4.899245 -1.308077 -21.633681  203  204  207
-14.786683 -11.485825 -24.700671  154  155  164
-6.231825 2.808822 -22.188905  189  191  192
-0.578364 -7.011832 -29.877166  221  223  223
-8.280840 0.017359 -22.618227  185  187  195
0.148438 0.360459 -28.121343  199  201  193
-6.863987 4.260844 -20.969573  145  106  107
-6.194129 6.663451 -22.968283  181  161  179
-10.361575 1.199342 -23.027057  141  136  136
-0.793694 9.194444 -20.756322  22  20  29
-6.400654 6.348695 -22.365070  163  154  147
-7.674820 5.193833 -22.078140  211  206  223
-16.736933 -19.803195 -28.244981  2  2  13
-8.701857 7.006055 -22.624570  103  109  117
-7.328119 11.904386 -18.907173  147  157  162
-11.105536 -16.257379 -28.421295  188  192  199
-7.593822 -1.004857 -22.053182  147  150  154
-9.197566 -0.913392 -21.743274  246  235  236
3.764385 0.159178 -21.314013  187  195  220
7.655877 -16.676057 -27.638511  38  21  0
-2.478507 -7.434283 -30.023891  52  69  75
-10.135787 3.860026 -22.742479  43  49  47
0.873656 9.125190 -21.294129  224  226  233
0.744195 -0.886127 -29.733070  186  187  178
-30.564896 11.064544 -18.849283  152  104  65
-8.327847 12.412920 -19.354370  163  167  181
1.132766 -0.672816 -21.631770  146  147  160
-29.989332 -11.552596 -17.953916  118  74  45
3.765994 1.580959 -21.206538  122  163  200
0.059609 3.927816 -29.337940  44  38  50
-5.149839 -1.480145 -22.943518  142  107  103
-23.430206 12.220305 -17.605968  75  42  26
2.329883 0.323424 -20.887772  29  49  92
-29.606403 -9.004466 -17.156478  165  74  25
9.740271 -20.605639 -30.020067  165  146  72
-32.681251 -2.916822 -17.431529  208  138  116
-31.999780 -6.015750 -16.873282  221  103  32
-4.381469 9.936696 -20.640924  87  64  61
3.454087 0.721417 -26.972335  200  196  201
-18.422186 -10.943452 -24.304947  19  21  26
3.592851 5.393493 -21.375149  128  124  126
-15.652361 -3.132160 -19.352591  97  94  93
2.887044 4.358876 -21.822348  76  92  103
-11.992685 2.764939 -29.305669  132  56  13
-21.100486 10.877906 -17.834033  255  163  173
-4.796171 -19.840744 -29.511295  228  233  239
1.915024 9.502356 -21.423043  228  221  232
-31.857333 -5.800278 -16.874823  215  97  22
2.656199 6.292799 -22.024750  29  64  85
-32.652293 5.608061 -19.277483  206  86  6
-25.062272 -11.856997 -22.714841  217  215  220
4.022502 5.653203 -21.274765  145  122  130
3.791663 5.550513 -21.378250  134  107  102
-19.727397 10.963578 -19.548697  100  88  90
-29.058131 -11.241556 -18.026600  156  67  20
-15.672528 -4.449622 -19.333301  15  16  25
-23.410964 11.252533 -17.564696  79  36  32
-11.107864 2.394562 -29.631771  123  123  120
-4.353392 10.998277 -20.681541  153  164  185
-6.834333 -19.031830 -29.629327  215  220  220
-12.571916 4.246327 -27.566308  69  33  25
5.030130 10.552941 -21.134115  3  4  0
-12.401497 -18.894014 -29.188108  167  177  176
-18.405729 -2.740455 -17.776628  155  157  168
-17.489545 -2.701930 -17.828654  137  129  117
-9.702332 7.306585 -22.819092  132  133  120
-27.298719 4.752186 -20.806977  129  45  4
1.062011 7.265219 -21.940223  89  77  79
-21.151445 4.642110 -18.895970  89  53  43
-21.311250 2.587802 -18.721010  140  122  128
-28.962799 -9.287579 -17.660850  170  81  40
-19.279874 -9.741436 -22.650332  94  96  105
-21.143286 3.801159 -18.738146  91  67  54
-24.497966 5.803669 -22.573469  106  38  9
-13.452817 -3.279848 -27.271910  152  105  79
-21.349113 11.319599 -16.890170  192  153  116
-29.239851 -4.053427 -18.788132  181  71  12
-26.072941 4.559312 -22.015225  96  40  10
4.000996 -0.029084 -21.263188  119  123  173
-30.135359 -14.104306 -22.379957  182  185  187
-23.339865 -12.365587 -23.562192  208  214  219
-2.492956 10.418611 -20.380975  48  44  36
-13.665361 -10.652515 -27.648069  161  160  162
3.503714 8.232385 -21.403182  47  91  99
-25.790538 4.694860 -22.090841  103  27  0
2.298682 0.696081 -29.996504  165  160  156
-13.920216 0.286908 -26.586010  134  81  30
-26.506538 5.856874 -22.050173  110  92  84
-32.983495 12.326528 -19.123480  175  156  129
-5.475607 9.880268 -23.028677  163  161  184
-25.729791 11.494226 -19.964380  95  63  37
-20.130501 -8.637977 -23.424731  137  137  147
-27.912656 4.539884 -20.355123  97  21  0
-21.022619 10.992943 -20.020275  67  38  31
-30.036365 10.318300 -19.254614  112  63  13
-17.695056 -8.757496 -23.854788  175  177  187
-10.708231 -10.285622 -27.991701  203  198  196
-21.013664 -7.627768 -22.353290  148  150  153
-29.946561 12.880837 -17.209521  191  174  159
-28.221666 -4.747326 -18.665520  171  64  10
-33.102306 -1.977938 -17.561474  205  175  145
-9.804152 12.871359 -19.234327  61  38  33
-28.089623 -3.234164 -18.955398  137  110  113
-23.819144 -6.952086 -21.245689  82  23  36
-13.632791 3.791134 -28.683500  97  31  0
-8.256337 10.663311 -22.591286  71  58  59
-34.033855 8.770491 -19.852265  225  97  19
-19.543634 -7.185407 -22.733489  189  192  196
-31.295353 -1.855780 -17.300824  221  107  47
-16.756456 -2.858753 -19.153721  96  93  99
-28.377472 5.625129 -20.489814  58  41  9
-30.176186 12.088943 -17.972999  191  172  149
1.066194 5.569643 -28.364802  67  65  75
-28.555465 12.636412 -19.024988  73  50  27
-5.385781 10.400552 -22.773717  53  50  51
-5.049180 9.632201 -20.865393  38  39  48
-33.853442 3.015351 -18.666501  204  204  203
-16.386915 -9.360520 -24.588584  157  159  170
-23.863801 4.589684 -21.705660  130  70  42
-19.630118 11.842142 -19.444068  93  66  33
-16.220919 -7.148919 -24.294601  209  215  224
-29.886965 -7.720827 -17.632629  180  78  15
-7.330044 9.556943 -21.241744  45  42  69
-20.605242 -10.639577 -22.754514  13  15  21
-30.479964 -4.501650 -17.121586  183  76  21
-31.804950 -4.010356 -17.211697  187  104  43
-27.082103 12.145969 -19.925801  108  66  28
-29.351420 -14.198721 -20.718874  167  171  177
-20.231455 -3.959998 -17.021920  60  58  58
-5.526021 9.937138 -23.058659  38  35  50
-6.922204 -6.448183 -27.582056  179  176  172
-28.066787 -10.880719 -17.945379  167  93  68
-16.678639 -17.699837 -27.922827  187  195  196
-27.439441 -0.603590 -19.264443  151  152  160
-16.436167 12.274615 -19.036637  61  37  39
-14.426132 1.891910 -28.134293  136  129  129
-31.714570 5.276137 -19.497416  165  60  0
-32.137049 6.723395 -19.519192  214  101  29
-6.632629 11.276944 -22.936057  71  59  55
0.456518 7.973323 -22.137306  79  72  69
-5.753156 -3.202731 -22.646663  163  142  132
-29.192129 -2.717330 -18.919640  172  61  0
-25.212021 -3.101723 -20.278852  166  165  175
-15.991143 5.800155 -19.907480  40  35  45
-27.321358 -8.861699 -17.999931  56  64  52
-24.074254 10.933415 -20.973272  102  57  20
-19.235036 -0.370828 -17.737580  124  116  98
-29.936268 -7.096744 -17.731571  182  78  18
-0.026561 10.865529 -20.779882  64  65  89
2.127248 2.264543 -21.746522  132  133  148
-30.774074 -5.673258 -17.564983  194  181  168
-26.913748 10.715208 -20.395639  80  43  9
-31.861309 7.851918 -19.820038  176  75  11
-3.485343 5.806829 -23.508803  90  95  100
-23.579518 10.621563 -19.177760  39  25  20
-28.544220 6.704369 -20.631759  158  142  131
-24.598050 9.061688 -22.990457  68  35  4
-27.521116 -3.576188 -21.196926  169  163  171
-28.306860 -12.497325 -22.258592  178  179  189
-24.624550 1.535909 -19.980526  156  151  164
-23.084919 -2.229228 -18.536169  152  151  158
0.654612 1.776614 -29.645169  179  174  157
-29.388987 1.484012 -19.847908  166  56  0
-10.550023 -12.725013 -27.544650  121  95  72
-30.501177 5.660730 -19.427614  162  153  150
-28.292818 10.495145 -18.633056  94  51  22
-15.089824 3.579967 -20.811266  50  43  37
-26.221377 -12.181206 -22.460772  164  168  155
-27.600037 0.532966 -19.314741  160  156  148
-10.925011 12.076406 -19.290069  69  45  42
-26.374726 7.968091 -22.106848  81  9  0
-23.691606 6.826935 -21.526553  84  18  0
-33.436449 5.407459 -18.823322  176  89  51
-2.393089 -15.415258 -30.910797  103  89  74
-27.957602 12.308563 -17.796725  152  135  102
-11.631541 -5.698929 -28.356563  165  148  136
-27.569038 5.811591 -21.789413  121  103  50
-33.600479 7.538248 -19.695267  184  86  20
-3.451625 8.421455 -20.810615  87  64  66
-8.782708 1.086703 -21.781313  204  206  214
-20.244607 10.671033 -17.284487  72  45  32
-5.498931 1.241408 -22.876150  163  165  174
-18.417716 -14.216509 -27.271731  143  144  156
-24.309269 -12.646781 -23.194148  168  172  179
-32.525528 4.268787 -18.589403  200  91  13
-2.609051 8.775353 -20.851434  41  37  44
-19.581918 13.173562 -18.193277  129  118  139
-11.846629 -15.623936 -28.147391  180  186  190
-15.737061 -4.687525 -19.402981  133  135  143
-27.590243 3.609502 -20.800787  134  143  152
-18.651395 -2.068638 -17.446434  70  67  58
-12.280809 7.059688 -25.854381  33  22  25
-29.313366 -11.821030 -22.758513  123  127  133
-15.109719 -17.463627 -29.485362  185  193  198
-24.634359 -0.960856 -19.771446  151  147  155
-8.871698 -14.468531 -29.022508  108  83  71
-14.811859 3.318513 -27.964287  97  88  92
-11.202001 6.592985 -22.857504  58  39  39
-22.650000 -2.673916 -17.718363  161  162  171
-21.636798 -10.244312 -21.678317  20  23  28
-19.582887 -2.299066 -17.531406  101  98  96
-15.195994 8.762066 -27.591100  9  3  4
-9.550139 -16.457135 -27.936812  193  210  223
-6.002506 0.012459 -22.116585  151  75  19
-7.618576 -0.030343 -21.335354  14  14  8
-7.292007 6.101381 -21.977678  137  142  118
-6.643062 5.901643 -22.162150  144  143  170
-9.606525 -16.362246 -27.905625  201  223  228
-8.610413 3.337312 -21.612808  67  77  88
-9.368002 -16.672429 -28.005734  243  227  239
-17.526513 -4.378916 -18.319168  91  93  100
0.751040 1.361026 -20.547680  161  173  210
-17.203889 -11.480210 -24.447472  121  123  133
-14.689039 -2.249073 -27.158280  158  156  151
-29.640491 -6.357366 -19.357093  193  89  37
-31.996125 -7.217495 -18.029953  206  121  75
-10.688489 -0.563189 -22.334351  143  134  128
-10.143719 5.610079 -22.554643  22  15  12
-10.214710 4.792597 -22.456614  3  4  4
-35.006664 -4.600736 -18.935855  210  104  23
3.622834 5.537380 -21.617780  109  113  118
-27.376828 7.335246 -21.117234  112  100  93
-25.063471 -12.633949 -23.712375  188  189  199
-26.484788 -11.771890 -23.321915  162  151  162
-14.812418 -7.827839 -27.181791  208  210  219
-20.308546 -3.344779 -17.587833  73  75  75
3.973825 10.038346 -21.258641  123  131  159
-30.591910 -12.122973 -19.639795  123  103  93
-26.503066 6.821544 -22.085049  119  82  64
-21.936380 -3.053612 -18.416629  142  145  143
-21.166227 10.694437 -17.465065  190  170  74
4.913823 -19.782497 -27.444052  205  210  217
3.168600 8.106797 -22.029824  124  103  111
-4.904057 10.730471 -20.638852  68  49  54
-16.118131 3.099185 -19.826087  45  45  41
5.800904 -17.038437 -26.794201  114  91  75
1.823653 8.142941 -22.142876  86  71  69
-21.398758 9.362004 -19.894573  98  57  25
-6.959384 -3.907387 -21.667469  207  204  202
-12.690094 4.842329 -26.633870  67  42  28
-18.629576 -11.479941 -24.385303  94  102  110
-11.959350 5.209146 -26.414500  65  48  42
-17.663851 -2.690940 -17.608049  65  55  41
-30.289417 3.015448 -20.951103  170  60  0
-25.040304 5.273059 -22.257743  100  83  68
-8.147036 10.941964 -19.620103  66  50  45
-33.394049 -9.009413 -18.474699  198  119  84
-19.185460 -2.541218 -16.688375  181  187  220
-25.181477 4.046320 -22.102758  97  92  91
-21.528529 5.214211 -18.900526  101  81  72
2.886480 6.861855 -21.658730  155  178  176
-35.892289 9.951704 -20.552972  133  33  0
-7.520200 0.003505 -20.820729  167  88  9
-32.027154 9.730458 -19.785687  143  54  13
-23.606372 -8.017202 -22.079753  32  28  36
-14.963760 -0.475261 -26.842669  115  108  112
-6.950231 -5.122769 -22.102376  147  151  152
-21.403968 11.757619 -17.267899  235  232  55
-21.994555 -1.328233 -18.403750  127  123  126
-26.382307 11.168375 -17.480266  113  59  19
-5.491081 12.751293 -23.795244  57  39  33
-23.413276 -6.692709 -21.231283  114  105  106
-9.890003 9.470049 -22.739152  43  34  37
-10.670810 8.525660 -22.975078  74  53  54
-15.282294 2.744019 -26.297174  73  71  61
-28.986975 -5.211415 -19.818210  181  163  175
-39.990366 -14.307901 -22.493147  142  128  106
-8.288219 9.897491 -22.376260  52  41  53
-33.000813 11.930599 -19.484162  204  158  114
5.017134 12.449020 -22.621687  34  35  53
-31.580233 -8.149068 -18.637538  185  83  22
-17.882370 11.231878 -19.239026  76  61  50
-18.623400 11.387868 -18.365377  100  71  60
-20.347003 -8.239322 -22.906596  132  136  144
-17.709928 -7.646102 -23.923479  156  155  158
-8.753846 11.156703 -21.945695  17  9  15
3.504344 4.362400 -21.429761  131  153  164
-25.970641 7.931509 -22.016975  78  19  0
-16.162847 -9.193891 -23.915124  159  161  165
-22.022273 -9.859272 -21.097407  116  120  117
-11.611647 -11.047901 -26.692688  170  154  156
-12.569456 6.826108 -25.148463  10  3  0
-27.602453 9.671967 -20.741411  71  34  7
-31.128719 -4.379152 -19.613899  181  69  0
-30.159487 -5.302200 -19.849221  185  76  8
-10.043689 -8.439793 -26.240106  208  200  202
-13.722887 4.007980 -27.311053  71  20  0
-33.522353 -7.935664 -18.360347  217  101  36
-28.722153 -6.555310 -20.060892  146  98  122
-26.900883 9.987570 -17.306101  99  60  31
-33.186943 -4.360298 -18.666319  210  109  46
-30.801593 -8.886322 -19.069817  189  83  23
-11.037714 10.591454 -19.260298  71  45  40
-22.486073 11.745649 -17.321363  58  24  0
-27.806970 11.676037 -17.381754  73  46  10
-29.050728 -0.641652 -20.611107  169  167  182
-21.674179 -0.876056 -18.584876  98  85  77
-30.423918 -10.276534 -19.102596  181  86  38
-9.618211 -0.047402 -22.574226  197  194  200
-24.807336 10.782495 -19.013622  95  51  9
-30.438733 8.472605 -20.881962  121  82  49
-31.834053 -11.329358 -17.911199  162  98  47
-17.608501 -17.723204 -27.697918  193  198  203
-10.620787 -9.365899 -26.561781  206  198  198
-5.221492 9.500408 -20.848152  77  61  60
-25.623056 7.079064 -22.498269  86  55  14
-28.119457 5.900785 -21.913943  120  39  8
-20.670285 -11.187996 -23.422513  99  100  114
-30.840415 -2.955411 -20.311856  181  69  4
-19.537508 1.952276 -17.901747  128  112  90
-16.914285 -2.799857 -18.387965  77  77  79
-31.803069 6.675128 -20.027959  150  153  138
-33.172555 7.551713 -20.163798  210  97  28
-11.107702 -13.353386 -27.095787  112  86  73
-25.524548 10.116593 -19.647441  87  47  18
-22.114546 -3.373370 -18.118991  186  187  200
-24.288596 2.794070 -22.238941  121  120  127
-30.333807 4.286179 -20.789649  168  60  0
-30.792364 -0.484935 -17.734000  187  78  12
-19.364105 -5.965847 -22.014138  193  196  202
-32.510181 12.231672 -18.233388  179  157  137
-31.499136 -6.753190 -19.725204  183  75  9
-32.046743 8.346761 -20.212895  165  128  144
-24.374381 1.173266 -20.184836  144  143  151
-0.217663 11.584780 -21.133364  50  46  34
-31.511484 9.793361 -20.293239  153  64  24
-13.402903 -1.196003 -27.729421  140  74  34
-21.097170 7.437707 -19.363495  68  36  22
-35.338018 -5.031210 -18.886536  218  214  197
-10.260921 -12.231252 -26.831787  124  105  80
-26.821758 -5.037224 -18.256264  189  188  198
-7.150971 1.201439 -20.318676  186  188  197
-32.797924 3.144944 -18.895697  227  108  46
-32.092466 -4.629525 -18.653996  180  69  4
-15.813566 5.632881 -19.623952  55  50  53
-25.414467 9.062863 -22.488219  54  26  12
-27.554712 11.875541 -18.064109  96  59  16
-24.449731 6.509878 -22.539431  102  78  59
-21.074366 12.359971 -16.611938  164  168  182
-24.904824 -0.540320 -16.531485  146  141  146
-19.791051 -18.022773 -27.789503  189  196  197
-29.771217 2.889972 -22.291135  141  144  155
-33.372771 -9.967058 -18.002375  220  106  28
-30.714566 12.096170 -18.363314  191  171  152
1.129851 12.668486 -21.577778  41  22  21
-11.373547 6.946229 -23.741648  54  37  38
2.479826 -1.166276 -21.927253  222  221  226
-4.954855 11.583980 -23.767234  71  56  64
-16.122370 -7.631113 -24.156197  147  149  155
-31.527270 3.329991 -20.886254  177  64  0
-30.604751 8.332759 -20.649285  168  158  159
-22.879791 -7.739142 -23.192025  148  143  153
-6.609776 6.334624 -22.008580  198  172  130
-21.982783 10.351732 -17.158788  71  44  38
-7.699275 -1.061513 -21.571694  202  204  189
-7.785928 4.968950 -21.663863  137  136  146
-5.575139 -0.062486 -23.610688  121  106  104
2.764970 0.278841 -21.686658  53  73  104
-44.962017 -16.002812 -25.776604  18  19  24
1.990768 9.558484 -21.863488  107  110  94
-21.965679 -4.403055 -18.546703  177  178  189
-8.645575 12.351340 -18.689005  37  41  53
2.135756 9.259442 -21.060108  62  63  84
-37.847736 8.242715 -21.080569  201  113  88
-5.138863 3.475313 -22.564814  111  98  105
-5.108597 -0.223475 -21.496608  0  15  45
-0.873397 3.686031 -27.362123  52  52  50
-10.223626 5.182142 -22.193445  7  7  14
-23.163237 11.168651 -17.009821  77  43  33
-33.172119 9.872657 -19.344306  126  105  58
-14.815839 -2.026131 -26.292078  139  145  159
-29.226751 8.051071 -20.772812  78  42  27
2.611705 5.585795 -21.626071  144  163  163
2.559872 3.577813 -20.902540  117  138  150
1.969270 7.030600 -22.498608  35  60  72
-38.283441 7.206669 -21.280133  199  82  0
1.941433 6.809864 -22.075727  85  101  103
-19.588074 10.699190 -19.140799  109  102  101
-28.335508 11.898614 -16.975159  89  65  41
-15.670096 -4.968529 -20.202745  154  156  167
-7.582707 -3.817986 -20.593022  151  134  128
-20.406193 12.134749 -17.649582  149  132  13
-32.432728 8.331042 -19.495378  196  114  73
1.128639 9.605171 -20.348036  117  119  134
3.028658 7.192795 -21.646319  143  167  164
-15.579449 -3.176314 -19.469502  22  22  26
-30.282770 -8.357830 -19.910136  183  75  19
-23.083400 10.831148 -16.906245  67  35  10
2.821925 4.540295 -21.320125  104  133  148
-18.494925 -11.229247 -24.776868  80  84  86
3.077307 8.162005 -21.808283  94  84  77
-35.667012 7.512890 -20.498460  209  88  27
-12.597596 4.213427 -27.223582  25  5  1
-5.885140 -1.597773 -22.247244  174  138  183
-28.567568 6.785458 -21.831196  82  64  45
-4.349365 9.335957 -20.374918  66  52  57
2.498877 1.986945 -21.013462  52  77  120
-22.987304 13.322864 -16.976549  67  38  40
-0.389333 10.588051 -20.635061  86  77  73
-4.669284 -6.602978 -27.592016  207  211  212
-26.462780 4.283443 -20.241604  142  140  153
-34.529262 9.092230 -20.312967  233  102  28
-23.623067 5.157034 -22.119186  98  77  66
-36.776525 -1.435187 -19.934097  192  136  86
-18.890338 -8.623167 -23.800535  123  127  136
-23.226850 -12.486123 -23.813645  201  207  211
-8.843272 -6.139148 -26.083021  59  56  55
-24.665276 3.768831 -22.413904  106  118  119
-9.479206 0.092507 -21.840120  205  206  219
0.694762 10.740938 -20.719094  107  108  112
-16.678815 -2.921853 -19.328371  52  44  51
2.219584 0.277525 -21.009675  53  73  104
-20.859823 10.793268 -19.738615  75  33  31
0.501266 -20.148635 -27.480959  52  103  66
-7.845647 10.869414 -19.702636  58  49  46
-22.283564 -9.022803 -23.278862  18  21  23
-18.356099 10.684675 -17.711256  92  89  92
-7.381780 9.951348 -20.083044  23  27  34
-20.493935 -10.045801 -24.073157  19  20  26
2.197447 2.423568 -22.193994  112  120  140
-27.811902 4.549853 -20.899795  155  154  162
-22.182087 -2.123914 -18.648007  121  120  127
-34.473127 -8.569505 -19.459356  214  98  33
1.659577 0.408458 -21.541090  208  215  227
1.467594 10.923776 -20.548473  93  92  110
-9.897128 -8.214245 -26.699009  201  198  201
-12.778844 6.739151 -24.298053  5  5  6
-33.247698 11.435664 -18.369995  191  151  114
-24.096587 -2.573756 -20.914273  156  155  164
-36.844387 -0.375056 -19.944704  228  219  198
-5.395309 9.720281 -20.482290  53  48  46
-33.248023 -2.031871 -19.202947  217  102  36
-29.890886 10.290923 -19.454360  85  40  17
-31.772993 8.656229 -20.502947  135  94  76
-24.374294 6.342495 -22.628280  97  77  49
-8.597420 0.471283 -21.466211  222  220  230
-18.606970 -4.668618 -17.480902  181  186  200
-32.326301 6.257906 -20.225662  206  147  155
-25.744240 8.905031 -20.276026  61  34  7
-6.143117 11.417458 -21.350124  57  49  42
-37.657363 -5.591951 -20.072689  214  217  220
-28.298929 10.801188 -17.750020  99  62  35
-30.699713 8.487441 -20.532076  106  89  93
-18.001425 10.271386 -17.483144  80  71  62
-28.323479 8.759481 -21.438073  66  34  4
6.527284 -19.976208 -27.259571  201  204  204
-27.676027 5.544129 -21.957272  121  32  1
-30.254738 4.382210 -20.957867  173  66  2
-22.987005 -0.880503 -18.858037  145  144  153
-30.551408 1.793596 -21.172759  167  58  3
-29.386997 -4.294761 -20.404972  176  164  172
-37.917513 -7.870028 -20.157754  211  214  216
-36.233799 2.304731 -20.313788  219  215  223
-10.793923 11.889919 -18.333008  60  43  43
-33.200029 3.478577 -19.152251  230  106  36
-26.387374 7.942001 -21.919384  97  19  0
-31.365884 -15.231074 -24.250637  200  201  211
-31.563307 -9.624701 -20.015357  184  88  32
-30.579974 -2.767359 -20.619883  184  80  17
-19.817278 -4.121155 -18.358131  41  43  49
-28.863490 7.035971 -20.777350  149  137  116
-19.414643 12.467209 -17.204202  55  47  33
-38.315069 -4.778571 -20.228773  212  214  217
-31.046706 5.613063 -19.716952  200  135  94
-29.231577 10.103668 -19.878593  83  33  2
-16.665133 -4.190391 -18.392594  65  71  78
-30.466311 -11.532672 -20.114511  178  77  19
-27.932604 -0.454874 -19.334770  163  162  171
0.669923 8.230157 -22.404520  84  75  66
-20.791522 -7.127868 -22.850919  135  134  141
-27.596015 9.551572 -21.229287  66  30  11
-32.659317 12.293297 -18.089792  191  172  146
-24.379545 1.957780 -22.351370  160  159  166
-24.987245 1.597069 -18.193240  151  150  157
-9.644278 10.309467 -20.756559  69  57  49
-25.344126 6.878447 -22.478920  104  58  46
-21.254280 6.023918 -19.086061  47  9  0
-24.605463 -0.817461 -19.352931  152  152  156
-35.417098 3.123416 -20.138724  205  106  48
-18.145400 -8.048931 -24.445021  140  140  154
-5.828963 6.598167 -22.399336  149  101  120
-33.963790 11.496930 -18.506808  116  75  26
-9.720453 12.513563 -18.546019  53  39  45
-11.160688 4.578457 -26.234853  56  53  56
-35.461526 5.547970 -20.258953  196  168  137
-32.718927 -12.556331 -21.138678  174  84  39
-20.594913 -2.065216 -18.080270  99  80  71
-21.781153 -10.109784 -21.804321  90  94  93
-6.670552 1.198623 -21.100009  203  207  217
-24.725702 7.800258 -22.566086  68  6  0
-27.824503 0.486329 -20.078024  159  156  164
-28.565134 -9.634689 -19.814506  61  67  57
-30.924413 -14.491649 -25.092824  179  181  190
-30.647236 6.904840 -19.549156  156  148  139
-19.858853 -5.097397 -17.844628  211  213  226
-19.486247 2.048957 -17.767493  131  121  91
-4.281937 11.192506 -20.562509  137  123  158
1.678479 -1.528009 -20.381048  200  200  200
-33.118115 6.918145 -20.203672  219  106  31
-2.067308 8.623278 -20.927818  91  83  85
-32.986881 -6.018013 -20.644365  173  71  1
-5.813487 7.924027 -22.389530  173  173  191
-22.192809 -13.848266 -25.397918  182  188  192
-19.590361 -12.062330 -24.588199  137  145  149
-7.543094 -13.246951 -27.592166  112  86  67
-27.943453 -5.088399 -19.553413  199  198  210
-8.367206 9.927487 -19.675651  24  25  21
-36.665718 -8.160973 -20.228238  223  90  25
-1.630745 9.071884 -23.358669  79  68  65
-7.030461 6.321050 -21.784107  190  184  145
-7.537730 4.999587 -21.532507  198  210  222
-6.605181 4.198338 -21.668815  213  202  169
-8.801967 6.790635 -21.643262  105  118  122
-8.290262 -0.009249 -21.450696  44  45  44
-3.951885 9.548493 -20.468579  21  15  27
-8.811059 12.486891 -19.001786  25  24  39
-4.798818 5.036453 -23.244835  41  71  59
0.920235 9.156923 -21.430549  106  105  104
-7.154799 4.395202 -21.537487  194  202  223
-37.344792 6.864174 -19.886716  163  91  59
-22.984001 11.724558 -16.778997  79  44  31
-33.085912 -5.503430 -18.666049  164  94  39
-33.879891 -6.701684 -18.676774  192  99  51
-36.806086 6.591310 -19.753711  195  83  12
-10.421561 5.367632 -21.298561  18  8  32
-36.230027 6.914523 -19.818141  177  94  56
-34.457712 -2.137818 -18.714555  233  107  42
-10.242463 5.513803 -21.988042  18  8  32
-8.948854 5.850644 -21.603758  182  183  182
-5.859253 -17.599772 -26.131999  206  215  217
-32.626471 5.574862 -19.152880  165  71  16
-17.150568 -11.107860 -23.581878  110  115  122
0.892059 0.842425 -21.122386  195  198  200
-35.648482 -2.552226 -18.977973  207  105  51
-26.386006 6.701078 -21.613390  121  69  40
1.852009 3.186089 -21.198209  29  72  105
-20.882280 10.479510 -17.052388  210  187  38
-21.443000 9.489119 -20.312519  72  55  45
-15.456605 -4.531560 -19.921862  147  149  135
-4.536980 10.304539 -20.542643  86  67  79
-32.875266 -5.491599 -18.435209  180  66  0
0.899253 7.159914 -21.818855  83  76  81
1.510985 8.331571 -21.926447  83  67  59
-31.514259 9.430154 -19.542233  154  55  0
-18.507523 -10.823600 -23.084220  97  102  110
1.651103 4.744331 -22.321722  159  162  162
-12.622937 -11.067855 -25.136668  134  130  126
-29.220674 6.726596 -20.115950  150  146  142
-34.763159 9.348858 -19.368689  96  32  0
-12.084778 5.047512 -25.834982  68  54  43
-28.801559 11.165376 -17.320823  199  191  184
-22.102093 11.851670 -16.777122  216  222  54
-20.222106 10.602774 -17.139313  202  204  0
-23.685250 -12.685848 -24.098674  220  229  232
-8.963176 -1.571175 -20.883724  169  180  165
-38.680187 2.731022 -19.968941  191  81  11
-28.033652 6.970051 -20.847530  111  94  82
-30.158550 8.112101 -20.021847  164  160  155
-0.445742 9.835899 -20.558721  90  82  85
-26.110539 -12.239362 -23.110286  168  175  175
-28.300186 11.538089 -15.337618  194  178  157
-8.792803 9.582349 -21.544098  63  49  57
-27.274094 4.923926 -21.996279  109  37  3
-20.755254 -8.054475 -22.992288  155  158  168
-5.683960 9.869646 -22.817235  36  40  54
-14.841138 0.700981 -24.385772  104  84  77
-19.575794 -9.127292 -21.571059  69  69  90
-5.243160 4.994240 -22.227827  93  77  96
-18.531041 10.320043 -17.330268  94  86  88
-5.250234 9.360638 -20.394370  67  60  68
-7.583324 10.945214 -20.036158  96  84  76
-16.389465 -8.866582 -23.952743  155  160  171
-33.185866 -4.322389 -18.497747  216  105  30
-27.529922 10.874161 -16.893576  87  57  30
-21.654932 -1.346985 -18.268776  140  139  145
-20.901185 12.382627 -17.015227  191  196  53
-33.813445 11.039554 -17.628744  97  48  0
-33.467534 -7.846857 -18.341690  218  104  33
-21.294979 11.016337 -20.674124  81  75  72
-9.769565 -7.432778 -25.687018  195  191  197
-14.094404 11.759910 -17.837751  62  45  41
-9.594580 1.130726 -21.197562  182  183  193
-10.361017 12.248978 -19.123381  61  41  36
-32.833888 -0.207137 -18.400548  231  114  42
-27.196703 10.370132 -17.632088  106  66  35
-5.728399 11.399994 -20.803659  197  186  153
-17.611010 -8.576548 -23.349517  141  143  152
-30.556147 -14.017559 -22.475439  199  204  213
-6.043420 10.022509 -22.710455  135  143  169
-31.381653 10.426072 -18.038941  108  60  23
-27.316104 11.759984 -16.987978  41  21  0
-23.930015 4.586915 -22.570489  91  18  0
-30.004886 -13.596176 -24.038729  180  185  194
-25.890225 11.056940 -18.095952  98  58  21
-25.391842 6.664417 -21.926829  103  57  34
-9.477465 10.309101 -20.225406  41  41  46
-17.657611 11.155248 -19.109841  69  62  59
-30.638355 10.023761 -19.463900  62  35  14
-32.582533 4.177539 -18.662963  217  98  38
-23.295147 -7.002107 -22.216317  122  124  132
-32.757401 3.707867 -18.667446  230  108  37
-19.656395 -7.298248 -22.563268  133  134  143
-22.206939 -12.059015 -22.846720  172  181  185
-8.547070 1.146876 -21.174311  184  189  199
-35.583018 3.281518 -19.184164  228  168  120
-34.786213 1.893548 -19.347682  236  121  52
-20.501962 -10.709811 -22.662661  101  109  112
-32.500199 7.231631 -19.275075  211  98  39
-27.734682 5.653654 -20.808667  129  45  0
-14.632770 7.442844 -25.233994  74  58  43
-18.173818 -7.469522 -23.102740  144  146  157
-36.265944 10.720418 -19.141558  112  51  4
-25.410998 10.912003 -18.441084  105  62  22
-31.663597 11.550707 -17.831630  175  156  145
-31.388385 -11.335064 -19.337083  177  85  34
-35.895450 -4.507294 -18.413451  214  218  213
-31.852227 1.880185 -19.233817  181  65  0
-38.227606 10.388564 -20.280405  94  38  0
-31.699102 12.182987 -16.510138  191  175  153
-26.464483 9.183642 -20.565425  72  36  7
-15.887253 -7.708297 -23.971042  152  154  161
-10.636918 -11.467127 -26.086562  139  125  110
-26.544678 5.660315 -21.431703  149  84  48
-25.325190 -2.811512 -20.215364  167  167  175
-4.441246 11.345485 -20.735072  36  40  63
-24.137652 3.419846 -21.069793  114  103  113
-20.039698 1.591481 -18.594779  131  126  116
2.750786 5.615219 -26.327374  97  101  104
-25.448493 2.077660 -19.901122  167  169  178
-27.759264 -0.717099 -19.415162  163  162  172
-6.758690 2.808115 -21.558768  189  199  192
-5.965166 1.451165 -21.801843  172  174  192
-24.041806 9.673115 -20.978167  76  44  22
-26.476494 -0.754259 -19.659536  145  145  149
-30.620426 -7.643370 -19.044103  178  77  12
-35.601160 3.482360 -19.224543  208  210  216
-21.322057 -13.478882 -24.436064  181  190  193
-26.696574 13.041094 -16.054332  36  31  18
-30.521967 5.897961 -19.191271  158  153  145
-18.938136 12.528078 -17.319277  64  40  56
-23.640444 12.374490 -16.830031  67  41  36
-31.117858 12.019173 -17.102171  189  173  153
-11.494208 3.904008 -22.138980  45  44  51
-26.603557 -3.504317 -20.379161  183  185  194
-21.552655 -1.069314 -18.196364  123  122  129
-31.213051 -0.591166 -19.735486  180  71  1
-11.208734 11.480460 -19.082233  71  47  56
-30.005845 -2.281535 -19.771357  186  73  6
0.254346 8.325246 -22.449796  82  74  69
-12.943982 7.356676 -25.211918  38  29  31
-35.714425 1.077443 -19.039577  213  215  221
-3.697053 8.388090 -20.389339  91  78  76
-11.238662 -13.175470 -26.281471  98  74  55
-23.804165 1.750972 -21.572109  157  156  167
-22.231972 7.589830 -19.121801  76  44  22
-24.436260 -1.234822 -19.534408  143  143  145
-28.730596 10.044701 -18.132729  118  73  23
-29.342748 11.265908 -16.668982  182  164  144
-28.755779 11.913391 -14.950398  191  178  163
