ply
format ascii 1.0
element face 0
property list uint8 int32 vertex_indices
element vertex 302
property float x
property float y
property float z
property uchar diffuse_red 
property uchar diffuse_green 
property uchar diffuse_blue 
end_header
-1.591092 9.469289 -22.278954  69  91  80
-2.971018 4.737882 -21.303947  194  164  139
1.112472 9.388401 -22.025743  147  148  168
-1.127868 9.525500 -22.206006  112  135  123
-2.879080 3.384754 -21.333407  166  162  176
-4.823451 -12.635631 -18.988397  197  194  192
2.575111 9.252836 -22.463180  37  50  55
4.053678 -8.691918 -23.038324  49  45  51
-5.207263 7.314395 -23.949555  61  44  36
-0.277302 5.246841 -21.139849  168  162  174
-4.478703 8.302390 -23.399040  108  117  118
3.044716 -9.178854 -23.483572  82  100  141
-2.770612 6.681921 -22.194398  163  173  164
7.869637 -8.134926 -22.594214  117  121  121
-3.937056 5.289152 -22.337282  120  133  64
2.649554 6.636285 -22.032455  101  139  40
-0.163775 2.563859 -20.659936  145  68  11
4.503237 2.711515 -21.390372  122  101  82
-1.550451 2.119603 -20.738926  182  186  210
4.470616 3.975459 -21.921523  119  73  64
1.292324 5.384271 -21.052157  173  146  137
-1.553249 7.439290 -21.957869  153  175  124
0.295232 -10.388837 -20.784697  92  67  102
4.253003 8.595127 -22.562389  106  117  69
-1.370614 4.469589 -21.047754  151  71  0
5.590901 1.887065 -21.845078  66  36  46
2.290955 5.108001 -20.945530  116  127  133
-5.119050 6.061989 -23.485895  91  78  67
-5.203890 -6.160515 -20.289978  221  217  205
6.794069 -9.240181 -22.389043  148  135  127
-2.245678 -5.175653 -19.361596  251  240  255
0.126598 -11.795322 -20.908908  39  25  90
4.983052 5.030635 -21.790589  62  68  47
5.264209 7.586770 -23.649797  60  60  52
5.411989 -9.592275 -24.245815  182  185  188
0.930865 3.360526 -20.737848  157  59  0
4.120022 -13.020524 -24.105288  112  130  148
-1.811775 14.931702 -23.802790  23  22  43
2.482465 3.181502 -20.869652  186  143  134
-2.899443 4.629957 -21.066430  185  174  196
3.967008 -7.029525 -22.595464  69  68  71
1.319857 -2.192150 -19.747464  137  135  134
5.375052 -7.554110 -23.355795  78  73  76
-3.271037 14.817880 -24.546627  20  17  37
0.115431 5.859269 -21.206955  72  116  11
-3.772220 7.000590 -22.762795  82  108  14
0.231563 -9.444935 -20.652804  107  85  116
-2.897551 4.543416 -21.490043  137  56  0
-3.396422 -2.863857 -18.805769  145  143  147
1.731261 14.693618 -23.467961  136  134  148
2.260380 -10.078716 -23.410224  191  191  190
-0.045376 -2.372918 -20.266486  138  137  143
-6.847942 -12.189947 -19.023208  191  192  187
13.105761 -21.603521 -32.081205  116  117  116
6.498205 -6.902906 -21.060556  136  140  146
3.580810 6.343397 -21.780678  127  131  152
-5.644498 -12.666298 -18.753135  18  79  108
2.478002 7.508197 -21.775990  53  97  0
3.564478 7.551132 -22.078225  127  144  64
1.380553 8.067835 -21.739411  56  105  0
5.791082 -10.482668 -23.413540  185  187  188
5.936261 -8.506336 -23.365350  65  52  39
3.828139 -2.880082 -19.996979  173  170  178
-0.924269 -2.473872 -21.342256  168  163  170
-5.640779 9.223148 -24.140410  53  40  42
3.196350 -5.707493 -22.889060  27  19  28
4.297044 -8.659812 -23.464731  49  52  52
1.826469 -5.646025 -22.932389  146  144  149
-2.105045 4.930737 -20.994604  160  178  186
5.101171 -6.209386 -23.822675  46  39  40
0.262107 -9.669004 -21.886834  108  81  110
-3.849647 -5.633748 -19.934760  87  82  108
3.632607 6.919068 -22.182776  57  77  34
4.609309 -15.186260 -24.638593  184  187  180
4.276570 -13.629746 -24.649739  114  142  162
-5.034333 -6.363911 -21.723716  187  184  183
-2.627320 6.858643 -21.630768  68  116  8
6.492772 -9.874977 -24.407513  63  60  56
-0.283401 6.849751 -21.127474  70  116  0
2.608009 -2.023204 -20.252117  139  136  141
3.672876 -12.435720 -24.528271  181  190  196
0.202712 -2.229319 -22.344910  148  142  151
-4.951376 2.438586 -21.988037  142  142  155
3.563419 -13.493900 -24.612052  185  186  178
-4.104946 -3.287585 -21.321528  140  139  142
7.754572 -12.621751 -24.697708  78  67  60
0.156422 -5.196433 -20.896064  239  227  255
-6.504265 -14.811228 -20.790374  183  187  183
1.148573 9.620238 -22.513875  129  131  147
-5.497637 4.853840 -24.181798  57  44  31
4.461435 -10.946778 -23.829799  162  171  174
-4.595141 8.470658 -24.337874  149  162  165
-0.122312 2.572561 -20.686594  181  168  161
4.262110 -8.997861 -23.784409  128  128  129
2.590575 5.112651 -21.466451  132  45  0
-0.726098 -12.490602 -22.455080  183  150  149
1.934066 2.590461 -20.897099  121  60  42
3.969039 9.562674 -23.322046  85  99  94
-1.571966 5.331598 -21.718323  99  116  66
-3.946001 5.291569 -22.147600  140  171  75
-1.786637 5.638139 -22.983037  179  141  104
-0.796004 -5.482281 -20.789588  85  51  80
3.832255 7.889761 -22.132618  71  74  54
-1.116627 -12.628378 -20.320020  186  151  148
1.830341 4.054817 -21.431373  158  101  66
5.097810 5.150623 -22.377629  68  62  37
0.386596 -12.451807 -22.345730  43  27  98
-6.870861 -7.907898 -23.044061  207  202  203
2.552284 3.294947 -21.096243  168  89  42
-2.506820 -6.447646 -20.271309  28  17  24
-3.818281 7.260617 -23.164360  71  108  0
3.809136 -2.514312 -21.156730  137  135  143
5.929741 -8.325395 -25.056728  53  51  58
0.160833 5.998042 -21.526020  73  121  0
2.639947 2.156814 -21.140968  158  156  165
5.410942 -3.148710 -21.314168  157  155  159
1.968197 -2.103664 -21.186782  175  173  180
-5.697005 -3.776565 -23.991622  168  168  172
6.851748 -8.708683 -24.124557  139  131  120
2.227473 -8.986161 -24.486337  157  156  161
6.258252 -11.389805 -24.963182  179  177  179
3.877369 6.325272 -22.345621  69  89  30
-6.284412 0.642435 -23.480714  143  144  142
6.964330 -12.810946 -24.832216  178  176  173
5.204811 -0.255516 -22.408986  140  139  145
3.771642 -11.279671 -25.486191  89  118  167
1.613090 7.256653 -21.907751  65  111  0
3.365937 -7.426020 -24.046880  16  4  2
0.668423 -5.613064 -23.228166  233  229  245
-1.584605 9.731798 -22.685113  109  138  124
2.754519 -5.734928 -23.740748  168  148  136
-3.304990 8.930671 -22.694125  132  151  143
-3.869401 4.921496 -22.614713  83  93  79
-1.001564 -11.910542 -23.119096  154  111  99
3.450827 4.749700 -21.257057  68  45  30
1.316693 5.448713 -21.275700  149  144  174
5.375393 -5.885106 -23.447627  47  42  34
3.284634 -9.582221 -24.607178  53  88  128
4.271706 3.852746 -21.327804  117  70  47
2.647661 6.593142 -21.824539  56  105  0
-1.467957 2.135442 -20.756663  126  120  126
2.190450 -7.674881 -24.164288  145  143  153
1.144074 -5.617575 -23.311266  235  229  237
0.271824 -10.122975 -22.373197  115  85  120
-4.034545 -6.109518 -22.066188  147  143  152
5.396832 -7.058361 -23.580355  122  115  114
2.585834 -10.596499 -25.133965  189  190  197
4.940837 -13.459609 -25.366487  100  122  145
7.551246 -6.397914 -22.709985  86  85  83
6.557445 -6.270709 -23.120187  146  145  154
-0.545199 -6.351283 -20.826056  105  71  103
-1.140879 -8.444621 -21.798050  98  54  83
-1.713089 -6.654166 -20.926115  52  24  10
3.409372 -2.949495 -21.050780  179  179  189
6.391401 -9.945641 -24.949573  198  192  205
-4.101275 -6.991197 -21.673194  22  72  97
-0.323874 6.989743 -21.671027  75  117  0
3.688275 6.406273 -22.075675  117  119  148
-3.774231 6.997877 -22.870896  64  114  0
2.292001 -2.612596 -21.122070  152  153  163
6.053009 -8.626971 -24.950826  54  47  51
-3.887113 -3.223946 -21.606371  174  171  183
4.859645 -5.407027 -23.898598  145  148  145
1.657279 6.600501 -21.691806  66  111  0
-3.029061 -6.733447 -20.955684  26  20  24
1.413034 -2.064561 -21.343974  182  181  185
-3.637984 3.401988 -21.320896  155  51  0
2.108047 9.040920 -21.866501  144  142  161
-4.522280 8.412271 -23.483707  43  49  50
-5.436420 3.236135 -23.632167  94  81  64
3.447731 1.981236 -20.053723  74  47  65
-1.054029 -5.097144 -19.137475  84  54  80
2.672675 7.280953 -21.805166  55  98  0
0.133343 -11.974053 -21.585122  50  30  93
2.995140 4.974199 -21.055249  160  136  114
4.903029 4.985115 -21.966719  170  114  63
-4.120994 7.327854 -23.727138  160  171  173
5.388649 -15.345166 -25.557758  133  140  145
2.540680 -10.408979 -25.157498  180  182  189
-2.928491 4.513359 -21.302090  146  60  0
-6.247448 1.213493 -22.912090  114  129  108
-2.082651 -6.276072 -19.587630  20  18  10
-2.463333 2.234010 -20.684954  143  69  20
3.749408 -14.060871 -25.470940  180  183  175
-0.258150 6.645560 -21.132987  66  117  0
-2.702084 7.011323 -22.038812  74  121  0
-5.748057 -6.803749 -22.452697  154  154  158
4.904794 7.245857 -22.545813  30  64  0
-6.727850 -4.959040 -23.498555  185  184  188
-3.106255 -2.716998 -17.615029  142  136  143
4.861449 -2.618391 -20.826249  129  129  129
-3.975602 -7.077625 -21.225616  48  41  54
-3.066723 16.342936 -26.352717  22  18  35
5.172270 -12.853034 -25.457032  64  89  136
-0.348027 -2.260328 -19.601154  145  141  145
2.020054 -2.044152 -19.598856  168  165  163
3.022395 -11.530333 -25.066862  181  183  182
2.948477 -7.935275 -22.757772  31  49  84
1.265966 -5.496129 -23.031784  100  68  61
2.649058 -5.343694 -21.967957  18  13  21
-3.694290 9.002053 -23.080843  113  130  119
1.144849 9.458405 -22.131018  153  154  168
-5.240127 1.366502 -22.538177  128  78  50
-0.914089 9.677951 -22.365038  137  173  137
-2.872171 3.380037 -21.402892  162  167  180
4.144869 -10.481071 -22.834112  71  70  71
-5.157761 7.365925 -23.700601  115  61  50
-3.932308 2.157955 -21.690229  233  157  102
4.114667 -8.885242 -23.432386  96  96  84
-4.829093 7.904095 -24.390854  145  133  143
4.704507 -5.517709 -22.099915  62  49  35
-4.537769 4.723014 -23.118702  99  59  55
-3.766374 7.601737 -23.215938  125  153  124
-2.263156 -5.266233 -19.916632  160  137  120
2.488251 6.440868 -21.398006  118  141  99
3.759573 9.211969 -22.623904  121  130  138
1.291225 -6.629331 -22.878802  113  88  92
2.663283 5.471418 -22.020851  143  137  138
3.717012 7.683222 -21.852953  46  67  0
2.548638 -8.768995 -23.461463  58  87  129
-6.384729 -7.281284 -22.558971  185  185  187
1.712812 3.767971 -20.799526  193  137  90
5.801719 1.096712 -21.771617  64  53  49
7.330087 -8.588823 -22.573602  83  88  89
4.987755 -9.423087 -23.248027  211  212  214
6.997232 -6.084369 -21.097686  102  97  99
2.444752 3.263225 -20.660444  164  151  157
6.402273 -5.776240 -21.360606  108  107  114
3.935823 -5.574425 -22.546929  49  42  36
5.655757 -9.841408 -22.589229  120  100  77
-4.334128 -8.286533 -20.546355  17  65  101
5.258777 -8.228762 -23.312477  165  172  185
-0.344729 7.083718 -21.539988  70  117  0
-0.830601 -6.539227 -22.042275  138  75  86
2.728578 -2.295412 -19.922555  141  140  146
-4.639342 -5.407621 -20.517722  180  181  191
4.148720 -2.361037 -20.214263  134  133  137
4.947563 -3.267094 -20.591352  163  166  171
-5.258570 -3.483403 -22.780495  167  168  175
6.040884 -1.662108 -21.155399  127  123  129
6.158035 -8.142442 -22.392676  133  125  121
0.722981 -2.571170 -19.745047  189  189  198
-6.750162 -7.799043 -22.751174  193  190  192
2.414629 -5.345962 -22.384162  64  56  61
-5.428382 3.107138 -23.218873  96  62  60
1.854311 9.062350 -21.851315  135  138  159
-4.511126 8.578802 -23.823510  76  82  94
2.089996 2.587537 -21.163987  167  155  164
5.688318 2.182956 -22.464704  90  48  24
-0.537909 -5.573017 -21.832589  103  57  96
-2.787455 6.386976 -22.498690  98  118  77
2.236993 9.235290 -22.330025  145  139  168
-3.940192 5.469655 -22.564728  140  170  65
-6.211657 -9.099215 -22.970946  190  191  185
-5.037324 -6.230366 -21.200677  148  174  192
6.480960 -9.208221 -22.064352  165  218  187
6.418438 -5.969088 -21.477963  124  124  127
-2.457339 2.520287 -21.824093  157  61  5
-4.688190 -8.412701 -21.205149  16  64  103
-0.468270 7.444074 -22.062609  75  120  0
-6.329813 0.050145 -23.226540  164  165  167
-2.654082 7.310542 -22.607708  67  116  0
5.839171 -5.367103 -21.768233  140  139  143
-3.756626 -8.576250 -21.504487  55  73  111
-1.147091 -6.481659 -21.726030  81  20  12
-5.757195 -13.485766 -22.359878  9  63  95
-4.769574 3.399876 -22.568544  159  123  105
1.560199 -6.707981 -22.649935  105  85  84
1.743589 7.122820 -22.064326  64  113  0
6.081056 -1.410508 -21.394530  132  129  138
7.694457 -7.637851 -21.420904  169  171  160
-6.022137 -0.976787 -23.735536  163  164  166
4.147322 12.912472 -24.042173  119  116  120
3.125344 -7.086186 -22.946002  8  8  18
7.999033 -11.362194 -23.636942  45  41  20
-3.399730 9.224413 -23.238042  63  91  74
-4.129279 4.508817 -22.459345  139  89  35
-6.484578 2.922643 -24.423421  131  131  125
-0.722189 9.927021 -22.783700  97  115  115
-5.275818 3.393166 -23.284423  137  105  119
-5.674089 -8.147339 -22.741066  60  82  100
-0.522192 9.920437 -22.710858  80  116  105
3.164350 -9.302094 -23.823395  54  63  106
-5.348399 1.666985 -22.945519  165  139  150
5.078722 -14.758062 -24.556878  163  182  172
4.746212 -13.038639 -24.580486  97  117  158
5.122098 5.277476 -22.594467  70  81  47
2.018165 -9.047879 -23.558175  159  167  189
6.395333 -9.402625 -24.090819  89  76  58
4.654246 -6.755397 -23.148937  72  60  42
7.031037 -3.527510 -22.069659  115  111  109
8.191323 -11.670546 -23.699227  104  98  82
8.223350 -9.716313 -23.200377  166  176  155
4.316131 6.842683 -23.022985  113  124  80
6.582724 -0.832859 -22.603734  112  105  113
-1.437932 15.520411 -24.031687  11  11  40
3.430965 -13.238836 -24.493267  111  124  143
-6.014011 -6.164170 -21.452945  175  177  179
7.526735 -2.348157 -22.346286  142  141  141
-1.783946 -11.013423 -24.235257  25  6  17
-6.492253 4.170069 -24.205777  57  46  23
5.734467 -8.511840 -24.064073  82  70  50
