ply
format ascii 1.0
element face 0
property list uint8 int32 vertex_indices
element vertex 1816
property float x
property float y
property float z
end_header
1.93056 1.24919 -34.0687
1.93121 1.13601 -34.0802
1.93219 1.02293 -34.0975
1.93312 0.909702 -34.1138
1.93409 0.796389 -34.1309
1.93506 0.682961 -34.148
1.93583 0.569362 -34.1617
1.93677 0.45571 -34.1782
1.9377 0.341947 -34.1947
1.93931 0.114077 -34.2231
1.94042 -0 -34.2427
1.94108 -0.114181 -34.2543
1.94203 -0.228474 -34.2711
1.94296 -0.342875 -34.2875
2.02895 -0.4774 -35.805
1.765 -1.14206 -31.147
1.77769 -1.35941 -31.371
1.88404 -1.99487 -33.2478
1.91745 -2.14303 -33.8374
1.93494 -2.2764 -34.1461
1.96482 -2.42713 -34.6733
1.98191 -2.56483 -34.9749
2.04601 -2.76812 -36.106
2.07822 -2.93396 -36.6744
2.12178 -3.12027 -37.4432
2.15715 -3.29917 -38.0674
2.18649 -3.47267 -38.5852
2.20435 -3.63069 -38.9003
2.21698 -3.78191 -39.1232
1.36853 -12.7193 -24.1505
2.11861 -20.3138 -37.3873
1.76161 8.03735 -33.0302
1.76185 7.92831 -33.0346
1.76211 7.81935 -33.0395
1.76393 7.7172 -33.0737
1.76531 7.61288 -33.0995
1.76639 7.50717 -33.1199
1.76718 7.40005 -33.1346
1.76793 7.29273 -33.1488
1.76872 7.18543 -33.1635
1.76953 7.07813 -33.1787
1.77073 6.97225 -33.2012
1.77198 6.86642 -33.2246
1.77321 6.76038 -33.2478
1.77448 6.65432 -33.2716
1.77574 6.54804 -33.2951
1.77677 6.4408 -33.3145
1.77762 6.33276 -33.3303
1.77851 6.22479 -33.3471
1.77935 6.11653 -33.3629
1.77957 6.00604 -33.3669
1.77963 5.89502 -33.368
1.78037 5.78621 -33.382
1.78208 5.68038 -33.414
1.78424 5.57574 -33.4544
1.78534 5.4676 -33.4751
1.78585 5.35756 -33.4847
1.78617 5.24686 -33.4906
1.78629 5.13558 -33.4929
1.78268 4.67954 -33.4253
1.78397 4.57143 -33.4495
1.78942 4.47356 -33.5517
1.79083 4.36515 -33.5781
1.79231 4.25673 -33.6057
1.79342 4.14729 -33.6267
1.79445 4.03751 -33.6459
1.79559 3.92785 -33.6673
1.79652 3.8176 -33.6847
1.79718 3.70669 -33.6972
1.79771 3.59542 -33.707
1.79813 3.48388 -33.715
1.79879 3.37273 -33.7273
1.79944 3.26148 -33.7395
1.80007 3.15013 -33.7514
1.80075 3.03877 -33.7641
1.8014 2.92727 -33.7762
1.80663 2.59703 -33.8742
1.80753 2.37239 -33.8913
1.8853 2.35663 -35.3494
1.91646 2.2758 -35.9337
1.91694 2.15656 -35.9427
1.88427 2.00203 -35.33
1.84091 1.84091 -34.5171
1.82885 1.71454 -34.2909
1.82022 1.59269 -34.1291
1.81804 1.47716 -34.0883
1.81677 1.36257 -34.0643
1.81703 1.24921 -34.0692
1.81711 1.13569 -34.0708
1.81778 1.0225 -34.0834
1.81846 0.909231 -34.0962
1.81929 0.795941 -34.1118
1.82015 0.682555 -34.1278
1.82186 0.455464 -34.1598
1.82288 0.34179 -34.179
1.82325 0.227906 -34.1859
1.82419 0.114012 -34.2036
1.82515 -0 -34.2216
1.82592 -0.11412 -34.2359
1.82678 -0.228348 -34.2522
1.82761 -0.342677 -34.2677
1.8818 -0.47045 -35.2837
1.83054 -0.80086 -34.3226
1.83234 -1.03069 -34.3564
1.83345 -1.14591 -34.3772
1.71012 -1.49635 -32.0647
1.75784 -1.8677 -32.9594
2.08385 -3.77698 -39.0722
2.08986 -3.91849 -39.1849
1.65114 8.03555 -33.0228
1.65149 7.92715 -33.0298
1.65171 7.81807 -33.0341
1.65346 7.71617 -33.0693
1.65488 7.61245 -33.0976
1.65606 7.50748 -33.1212
1.65687 7.4007 -33.1375
1.65761 7.29346 -33.1521
1.65833 7.18609 -33.1666
1.65907 7.0787 -33.1814
1.65991 6.97161 -33.1981
1.66088 6.86495 -33.2175
1.66197 6.75866 -33.2393
1.66319 6.65276 -33.2638
1.66449 6.54698 -33.2897
1.66549 6.43991 -33.3099
1.66629 6.33191 -33.3258
1.66707 6.22372 -33.3414
1.66778 6.1152 -33.3556
1.66813 6.00527 -33.3626
1.66838 5.89494 -33.3676
1.67379 5.35612 -33.4757
1.67422 5.24588 -33.4844
1.67434 5.13463 -33.4867
1.67419 5.02256 -33.4837
1.66728 4.66839 -33.3457
1.66841 4.56031 -33.3681
1.67405 4.46412 -33.4809
1.6848 3.70657 -33.6961
1.68539 3.59551 -33.7079
1.68583 3.48405 -33.7166
1.68635 3.3727 -33.727
1.68685 3.26125 -33.737
1.68734 3.14971 -33.7469
1.68788 3.03818 -33.7576
1.82737 2.19284 -36.5474
1.7996 2.03955 -35.9921
1.7691 1.88704 -35.3819
1.74576 1.74576 -34.9153
1.72692 1.6118 -34.5385
1.73207 -0.692828 -34.6414
1.71664 -0.801096 -34.3327
1.7178 -0.916158 -34.3559
1.71787 -1.14525 -34.3575
1.65638 -1.87723 -33.1276
1.361 -14.2451 -27.2199
1.56231 5.13331 -33.4781
1.5624 5.022 -33.48
1.56207 4.90938 -33.473
1.56191 4.4626 -33.4695
1.5635 4.35545 -33.5035
1.56546 4.24911 -33.5456
1.70489 2.43556 -36.5334
1.71766 2.3311 -36.8069
1.5927 -0.56882 -34.1292
1.59459 -0.683396 -34.1698
1.58288 -1.01757 -33.9189
1.48606 -1.37991 -31.8442
1.51599 -1.51599 -32.4855
1.55539 -1.77759 -33.3298
1.82779 -3.9167 -39.167
1.82965 -4.05137 -39.2068
1.52993 -15.955 -32.7841
1.53094 -16.0749 -32.8059
1.53144 -16.1895 -32.8166
1.53205 -16.3054 -32.8296
1.32798 -14.8924 -28.4568
1.45058 4.90965 -33.4749
1.44358 4.77493 -33.3135
1.44418 4.66581 -33.3272
1.44488 4.55694 -33.3435
1.45284 4.24678 -33.5272
1.45403 4.13839 -33.5545
1.45521 4.0298 -33.5817
1.55944 2.5191 -35.9871
1.55908 2.39859 -35.9788
1.44804 -0.556938 -33.4163
1.43907 -0.664186 -33.2093
1.43129 -0.770697 -33.0299
1.45166 -1.005 -33.4999
1.46829 -1.35534 -33.8835
1.44479 -1.55592 -33.3412
1.44274 -1.6647 -33.294
1.45429 -1.7899 -33.5606
1.69529 -3.91221 -39.1221
0.982728 -10.6588 -22.6783
1.20026 -13.1105 -27.6983
1.23667 -13.6033 -28.5384
1.35181 -14.9739 -31.1957
1.36916 -15.2714 -31.5961
1.39633 -15.6819 -32.223
1.40595 -15.8981 -32.4451
1.41488 -16.1079 -32.6511
1.33595 4.67584 -33.3989
1.3352 4.56194 -33.3801
1.33674 4.45581 -33.4186
1.33819 4.34913 -33.4548
1.34135 4.02404 -33.5336
1.34203 3.91425 -33.5507
1.3429 3.80487 -33.5724
1.43438 3.10782 -35.8595
1.44537 3.01119 -36.1343
1.43837 2.75687 -35.9592
1.4024 2.57107 -35.06
1.41935 2.48387 -35.4838
1.30465 -0.434883 -32.6162
1.30571 -0.544045 -32.6427
1.30086 -0.758834 -32.5215
1.3263 -0.884197 -33.1574
1.36712 -1.25319 -34.1779
1.36967 -1.36967 -34.2417
1.34584 -1.57015 -33.646
1.33932 -1.67415 -33.4831
1.56713 -4.04842 -39.1783
1.47396 -6.26435 -36.8491
1.41512 -6.13217 -35.3779
1.4156 -6.25224 -35.3901
1.40556 -6.32502 -35.139
1.3026 -14.4372 -32.565
1.30292 -14.5492 -32.5729
0.906992 -10.6572 -22.6748
1.05759 -12.5148 -26.4397
1.07168 -12.7709 -26.7921
1.15602 -13.8723 -28.9005
0.912945 -12.2487 -22.8236
1.22455 4.4529 -33.3968
1.22565 4.34548 -33.4268
1.2271 4.23908 -33.4664
1.22781 4.1299 -33.4857
1.22872 3.79786 -33.5106
1.22952 3.68857 -33.5324
1.23074 3.58033 -33.5656
1.29331 3.17449 -35.2721
1.32235 3.12554 -36.064
1.31822 2.87611 -35.9514
1.14709 -0.417125 -31.2843
1.17315 -0.533248 -31.9949
1.18637 -0.64711 -32.3555
1.20394 -0.766144 -32.8347
1.22518 -0.89104 -33.414
1.25123 -1.25123 -34.1244
1.24633 -1.47294 -33.9908
1.23857 -1.57636 -33.7792
1.43641 -4.04805 -39.1747
1.38866 -5.30215 -37.8725
1.3664 -5.34139 -37.2655
1.41443 -5.91487 -38.5752
1.40877 -6.01928 -38.4209
1.43775 -6.27382 -39.2114
1.44221 -6.42437 -39.3329
1.41311 -6.42321 -38.5393
1.38832 -6.43677 -37.8633
1.34673 -6.36636 -36.729
1.3276 -6.3966 -36.2072
1.30383 -6.40064 -35.5591
1.10238 -13.5292 -30.065
1.11549 4.23887 -33.4647
1.11628 4.13024 -33.4884
1.11685 4.02066 -33.5055
1.11696 3.90934 -33.5087
1.11688 3.57403 -33.5065
1.117 3.46271 -33.5101
1.11745 3.35236 -33.5236
1.11785 3.24177 -33.5356
1.14707 3.21179 -34.412
1.16468 3.14463 -34.9403
1.18454 2.84289 -35.5362
1.05007 -0.420028 -31.5021
1.07586 -0.537928 -32.2757
1.08397 -0.650382 -32.5191
1.12941 -1.12941 -33.8824
1.13531 -1.24884 -34.0593
1.13782 -1.36538 -34.1345
1.133 -1.4729 -33.9901
1.12571 -1.57599 -33.7713
1.30559 -4.04732 -39.1676
1.3055 -4.17761 -39.1651
1.23217 -4.55904 -36.9652
1.31162 -5.37765 -39.3486
1.27313 -5.47446 -38.1939
1.2867 -5.66146 -38.6009
1.2557 -5.65067 -37.6711
1.2921 -5.94367 -38.7631
1.28655 -6.04677 -38.5964
1.29523 -6.21711 -38.857
1.30009 -6.37045 -39.0028
1.18772 -6.41368 -35.6316
1.07045 -14.6652 -32.1135
1.12948 -16.8292 -33.8843
1.15556 -17.3333 -34.6667
1.17133 -18.3899 -35.1399
1.13771 -17.9758 -34.1312
1.00515 4.02058 -33.5049
1.00551 3.91033 -33.5171
1.00555 3.79876 -33.5185
1.00532 3.68616 -33.5105
1.00509 3.3503 -33.503
1.00537 3.23953 -33.5124
1.00055 -0.778207 -33.3517
1.00913 -0.897004 -33.6376
1.00647 -1.00647 -33.5492
1.01419 -1.12688 -33.8064
1.02304 -1.36406 -34.1015
1.02383 -1.47887 -34.1277
1.1747 -4.0462 -39.1568
1.17469 -4.17669 -39.1564
1.17563 -4.7025 -39.1875
1.13531 -4.66739 -37.8437
1.16119 -4.9028 -38.7063
1.17918 -5.37182 -39.306
1.15362 -5.63993 -38.4541
0.964514 -14.4677 -32.1505
0.961495 -14.6361 -32.0498
1.01837 -16.8597 -33.9458
1.03182 -17.1971 -34.3942
1.00394 -16.9554 -33.4647
0.988074 -16.7973 -32.9358
0.989709 -16.935 -32.9903
1.04803 -18.0494 -34.9343
1.07198 -18.581 -35.7326
1.0623 -18.5312 -35.41
1.03447 -18.1606 -34.4822
1.04549 -18.4704 -34.8498
0.962574 -17.2194 -32.0858
0.893775 3.79854 -33.5166
0.893861 3.68718 -33.5198
0.893761 3.57505 -33.5161
0.893506 3.46234 -33.5065
0.919992 -0.804993 -34.4997
0.906295 -1.01958 -33.9861
0.907556 -1.24789 -34.0334
0.909296 -1.36394 -34.0986
0.909803 -1.47843 -34.1176
1.04427 -4.17709 -39.1602
1.04417 -4.30722 -39.1565
1.04395 -4.4368 -39.1483
1.04453 -4.70038 -39.1699
1.02973 -4.89123 -38.615
1.02513 -4.99751 -38.4424
1.04466 -5.35389 -39.1748
1.04262 -5.47374 -39.0982
0.858452 -14.4864 -32.1919
0.855699 -14.6538 -32.0887
0.904666 -17.0756 -33.925
0.902402 -17.1456 -33.8401
0.918316 -17.7924 -34.4368
0.93334 -18.2001 -35.0003
0.903922 -17.8525 -33.8971
0.910252 -18.0913 -34.1345
0.782001 3.57486 -33.5143
0.782005 3.46317 -33.5145
0.817919 3.03798 -35.0537
0.806205 2.8793 -34.5516
0.806647 -0.691411 -34.5706
0.810198 -0.92594 -34.7228
0.807146 -1.03776 -34.592
0.793292 -1.13327 -33.9982
0.794272 -1.24814 -34.0402
0.794613 -1.36219 -34.0548
0.913621 -4.30707 -39.1552
0.913562 -4.4373 -39.1527
0.913492 -4.69796 -39.1497
0.89372 -4.9793 -38.3023
0.904371 -5.16783 -38.7587
0.754338 -14.0091 -32.3288
0.754741 -14.1244 -32.3461
0.754949 -14.2362 -32.3549
0.755436 -14.3533 -32.3758
0.755794 -14.4681 -32.3912
0.747747 -14.6345 -32.0463
0.752979 -14.8445 -32.2705
0.753142 -14.9552 -32.2775
0.756542 -15.1308 -32.4232
0.793658 -17.914 -34.0139
0.781284 -17.9695 -33.4836
0.683285 2.84702 -34.1643
0.717726 -0.598105 -35.8863
0.693833 -0.693833 -34.6917
0.697427 -0.813665 -34.8713
0.680713 -1.13452 -34.0356
0.680395 -1.24739 -34.0198
0.773491 -5.1566 -38.6745
0.778132 -5.31723 -38.9066
0.645431 -13.6616 -32.2716
0.645555 -13.7718 -32.2778
0.645607 -13.8805 -32.2803
0.646127 -13.9994 -32.3064
0.646471 -14.1146 -32.3236
0.646729 -14.228 -32.3364
0.647099 -14.344 -32.355
0.647407 -14.4587 -32.3703
0.646454 -14.5452 -32.3227
0.646221 -14.6477 -32.3111
0.643844 -14.7011 -32.1922
0.643858 -14.8087 -32.1929
0.643818 -14.9151 -32.1909
0.646191 -15.0778 -32.3096
0.680103 -17.9094 -34.0051
0.592556 3.31832 -35.5534
0.583671 3.03509 -35.0203
0.579738 2.78274 -34.7843
0.585568 2.69361 -35.1341
0.623747 -0.374248 -37.4248
0.611787 -0.48943 -36.7072
0.580363 -0.812508 -34.8218
0.568969 -1.02414 -34.1382
0.567391 -1.13478 -34.0435
0.65196 -4.56372 -39.1176
0.537506 -13.6527 -32.2504
0.537625 -13.7632 -32.2575
0.538246 -13.9944 -32.2948
0.552329 -15.5757 -33.1397
0.484593 3.39215 -36.3445
0.455209 2.84505 -34.1406
0.45626 2.73756 -34.2195
0.466525 2.56589 -34.9894
0.468575 2.46002 -35.1431
0.472596 2.36298 -35.4447
0.51028 -0.12757 -38.271
0.481202 -0.240601 -36.0901
0.502335 -0.376751 -37.6751
0.489146 -0.489146 -36.6859
0.458879 -0.803039 -34.416
0.457788 -0.915576 -34.3341
0.457731 -1.02989 -34.3298
0.52168 -4.5647 -39.126
0.521335 -4.82235 -39.1001
0.521265 -5.6036 -39.0949
0.429934 -13.6504 -32.2451
0.44299 -15.8369 -33.2242
0.452291 -16.2825 -33.9218
0.452387 -17.8693 -33.929
0.362194 3.50121 -36.2194
0.360968 3.36904 -36.0968
0.343077 2.63026 -34.3077
0.340179 2.38125 -34.0179
0.345679 2.30453 -34.5679
0.341299 2.16156 -34.1299
0.340991 2.04594 -34.0991
0.337555 1.91281 -33.7555
0.33669 1.79568 -33.669
0.335945 1.67972 -33.5945
0.33581 1.56711 -33.581
0.335887 1.45551 -33.5887
0.335989 1.34396 -33.5989
0.364787 -0.364787 -36.4787
0.350377 -0.700753 -35.0377
0.345458 -0.80607 -34.5458
0.344866 -0.919644 -34.4866
0.322455 -13.6506 -32.2455
0.325044 -15.3854 -32.5044
0.334981 -16.0791 -33.4981
0.245907 3.56565 -36.8861
0.239997 3.23996 -35.9996
0.236063 3.06882 -35.4095
0.227026 2.72431 -34.0539
0.226201 2.60131 -33.9302
0.226265 2.48892 -33.9398
0.224627 1.90933 -33.6941
0.2245 1.796 -33.675
0.22425 1.68187 -33.6375
0.224046 1.56832 -33.6068
0.224003 1.45602 -33.6004
0.223985 1.34391 -33.5978
0.242043 -0.605107 -36.3064
0.237987 -0.713962 -35.6981
0.234589 -0.821061 -35.1883
0.260225 -4.68405 -39.0338
0.259917 -4.93842 -38.9875
0.259584 -5.32146 -38.9375
0.259728 -5.45428 -38.9591
0.255363 -5.61798 -38.3044
0.214937 -13.7559 -32.2405
0.215136 -15.0595 -32.2703
0.216419 -15.2575 -32.4628
0.216784 -15.3917 -32.5176
0.218093 -15.5936 -32.7139
0.121464 3.401 -36.4393
0.118421 3.07895 -35.5264
0.116367 2.90918 -34.9101
0.114932 2.75837 -34.4796
0.11391 2.61992 -34.1729
0.113697 2.50133 -34.109
0.113673 2.38714 -34.102
0.113878 2.27756 -34.1634
0.113722 2.16072 -34.1166
0.115281 1.84449 -34.5842
0.116273 -0.116273 -34.8819
0.116319 -0.232639 -34.8958
0.130169 -4.68608 -39.0507
0.130062 -4.81229 -39.0186
0.129886 -5.06555 -38.9658
0.129955 -5.4581 -38.9864
0.127587 -5.61382 -38.276
0.126174 -5.67782 -37.8522
0.107452 -13.7538 -32.2355
0.107427 -13.8581 -32.2281
-0 2.7609 -34.5113
-0 2.62271 -34.2093
-0 2.50743 -34.1922
-0 2.39466 -34.2095
-0 2.29053 -34.358
-0 2.17456 -34.3351
-0 2.05776 -34.2961
-0 -0.350669 -35.0669
-0 -0.592448 -35.5469
-0 -0.708479 -35.4239
-0 -4.8118 -39.0146
-0 -5.18908 -38.9181
-0 -5.32064 -38.9315
-0 -5.45235 -38.9454
-0 -13.8572 -32.226
-0 -17.3413 -32.5149
-0.115049 1.95583 -34.5146
-0.114814 1.83703 -34.4443
-0.113013 1.69519 -33.9038
-0.112727 1.57818 -33.8182
-0.112161 1.45809 -33.6482
-0.111947 0.559737 -33.5842
-0.111991 0.447965 -33.5973
-0.112242 -0 -33.6727
-0.112978 -0.112978 -33.8934
-0.113568 -0.227137 -34.0705
-0.114738 -0.344214 -34.4214
-0.114788 -0.459152 -34.4364
-0.129989 -4.8096 -38.9967
-0.129932 -4.93743 -38.9797
-0.129704 -5.31787 -38.9112
-0.129452 -5.69589 -38.8356
-0.103137 -16.1924 -30.941
-0.0995995 -15.7367 -29.8799
-0.102852 -16.4562 -30.8555
-0.232141 1.39284 -34.8211
-0.237053 1.30379 -35.5579
-0.223689 0.671067 -33.5534
-0.223798 0.559494 -33.5696
-0.223876 0.447753 -33.5815
-0.223956 0.335933 -33.5933
-0.224051 0.224051 -33.6076
-0.224143 0.112072 -33.6215
-0.224289 -0 -33.6433
-0.226021 -0.113011 -33.9032
-0.22858 -0.342869 -34.2869
-0.22887 -0.45774 -34.3305
-0.237986 -0.713957 -35.6979
-0.259941 -4.93888 -38.9912
-0.259853 -5.06714 -38.978
-0.259637 -5.19274 -38.9456
-0.259486 -5.31946 -38.9229
-0.259496 -5.44942 -38.9244
-0.259538 -5.58007 -38.9307
-0.258764 -5.69281 -38.8146
-0.20085 -15.7667 -30.1275
-0.196048 -15.4878 -29.4073
-0.213103 -17.0483 -31.9655
-0.350016 1.40006 -35.0016
-0.353538 1.29631 -35.3538
-0.348066 1.0442 -34.8066
-0.341657 0.911087 -34.1657
-0.341713 0.79733 -34.1713
-0.338622 0.677243 -33.8622
-0.337193 0.561988 -33.7193
-0.336324 0.448432 -33.6324
-0.336108 0.336108 -33.6108
-0.336069 0.224046 -33.6069
-0.339344 -0.339344 -33.9344
-0.389471 -5.19295 -38.9471
-0.389327 -5.3208 -38.9327
-0.389329 -5.45061 -38.9329
-0.389337 -5.5805 -38.9337
-0.363085 -17.6702 -36.3085
-0.424826 -16.9931 -31.862
-0.558868 -0.335321 -33.5321
-0.475283 -14.9239 -28.517
-0.717851 -15.5534 -35.8925
-0.685622 -16.6835 -34.2811
-0.518537 -13.5684 -25.9269
-0.836607 -15.6565 -35.8546
-0.836597 -15.7758 -35.8542
-0.833525 -17.504 -35.7225
-0.598643 -13.4267 -25.6561
-0.752257 -17.1944 -32.2396
-0.78365 -0.391825 -29.3869
-0.93498 -15.3103 -35.0617
-0.940233 -15.5138 -35.2587
-0.885396 -17.7079 -33.2023
-0.792733 -0.352326 -26.4244
-1.03207 -15.0223 -34.4022
-1.03983 -15.2508 -34.6609
-1.03706 -16.9386 -34.5687
-0.833138 -0.333255 -24.9941
-0.817097 -0.490258 -24.5129
-1.13894 -14.9201 -34.1681
-1.1394 -16.7492 -34.1821
-0.822952 -12.9204 -24.6886
-0.938044 -14.8211 -28.1413
-0.916184 -0.333158 -24.9868
-0.900277 -0.49106 -24.553
-1.30484 -14.5904 -35.5864
-1.25672 -14.9665 -34.2743
-0.999018 -0.333006 -24.9754
-0.983285 -0.491643 -24.5821
-1.06695 -0.328293 -24.6219
-1.05861 -0.48859 -24.4295
-1.07841 -13.1897 -24.8863
-1.16384 -0.249394 -24.9394
-1.14743 -0.327838 -24.5879
-1.14459 -0.490537 -24.5269
-1.5366 -6.04398 -30.7321
-1.12067 -11.7296 -22.4133
-1.44699 13.4485 -25.5351
-1.62056 -0.28598 -28.598
-2.03168 -17.6875 -35.8531
-1.78453 0.594844 -29.7422
-1.78484 0.49579 -29.7474
-1.78557 0.396794 -29.7595
-1.78658 0.297764 -29.7764
-1.70267 -0.283778 -28.3778
-1.65409 -0.367575 -27.5682
-1.65907 -0.553022 -27.6511
-1.93403 -6.33933 -32.2339
-2.10887 -13.4733 -35.1478
-1.88196 0.693353 -29.7151
-1.88234 0.594423 -29.7212
-1.88262 0.495426 -29.7255
-1.88343 0.396511 -29.7383
-1.88458 0.297565 -29.7565
-1.88525 0.198447 -29.7671
-1.88603 0.0992649 -29.7795
-1.88686 -0 -29.7926
-1.88768 -0.0993514 -29.8054
-1.8885 -0.19879 -29.8185
-1.82061 -0.287465 -28.7465
-1.79711 -0.378339 -28.3754
-1.81629 -0.573564 -28.6782
-1.84982 -0.681511 -29.2076
-1.85631 -0.781606 -29.3102
-1.88106 -0.891027 -29.7009
-1.88682 -0.993066 -29.792
-1.89247 -1.09564 -29.8811
-1.89493 -1.1968 -29.92
-1.89685 -1.29784 -29.9502
-1.89814 -1.39863 -29.9706
-1.89923 -1.4994 -29.9879
-1.9002 -1.60016 -30.0031
-1.9011 -1.70099 -30.0174
-1.90188 -1.80178 -30.0298
-1.90239 -1.90239 -30.0377
-1.9028 -2.00295 -30.0442
-1.90359 -2.10397 -30.0567
-1.90474 -2.20549 -30.0748
-1.90546 -2.30661 -30.0862
-1.90607 -2.40767 -30.0959
-1.90686 -2.50903 -30.1084
-1.90795 -2.61088 -30.1256
-1.90893 -2.71269 -30.141
-1.90994 -2.81465 -30.1569
-1.91114 -2.91701 -30.176
-1.91208 -3.01908 -30.1908
-1.91301 -3.12123 -30.2054
-1.91389 -3.2234 -30.2194
-1.91477 -3.32565 -30.2332
-1.91563 -3.42797 -30.2468
-1.91649 -3.53038 -30.2604
-1.91736 -3.63289 -30.274
-1.91822 -3.73548 -30.2876
-1.91908 -3.83816 -30.3012
-1.91994 -3.94093 -30.3149
-1.9208 -4.0438 -30.3285
-1.84533 -15.1511 -29.1368
-1.41639 -11.8529 -22.364
-1.97981 0.692932 -29.6971
-1.98034 0.594103 -29.7051
-1.89545 -0.568636 -28.4318
-1.91824 -0.671384 -28.7736
-1.92348 -0.769391 -28.8521
-1.953 -0.878851 -29.295
-1.96544 -0.982718 -29.4815
-1.97892 -1.08841 -29.6838
-1.98582 -1.19149 -29.7873
-1.99113 -1.29423 -29.8669
-1.9943 -1.39601 -29.9145
-1.99662 -1.49746 -29.9493
-1.99827 -1.59862 -29.974
-1.9996 -1.69966 -29.994
-2.00068 -1.80061 -30.0102
-1.98459 -2.57997 -29.7689
-1.98231 -2.67612 -29.7346
-1.97966 -2.77152 -29.6949
-2.00108 -2.90156 -30.0161
-2.00491 -3.00736 -30.0736
-2.0098 -3.1152 -30.1471
-2.01189 -3.21903 -30.1784
-2.01368 -3.32257 -30.2051
-2.01493 -3.42538 -30.224
-2.01605 -3.52808 -30.2407
-2.01705 -3.63068 -30.2557
-2.018 -3.73331 -30.27
-2.01893 -3.83597 -30.284
-2.01985 -3.93871 -30.2978
-2.02077 -4.04153 -30.3115
-2.02145 -4.14398 -30.3218
-2.0222 -4.24661 -30.3329
-2.02328 -4.35005 -30.3492
-2.02413 -4.4531 -30.362
-2.02487 -4.55597 -30.3731
-2.02557 -4.65881 -30.3836
-2.02635 -4.76192 -30.3952
-2.02763 -4.86632 -30.4145
-2.02858 -4.97001 -30.4286
-2.02939 -5.07347 -30.4408
-2.03029 -5.17724 -30.4543
-2.03119 -5.28108 -30.4678
-2.0321 -5.38506 -30.4815
-2.03301 -5.48913 -30.4952
-2.03393 -5.59331 -30.509
-2.03485 -5.69758 -30.5227
-2.03577 -5.80194 -30.5365
-2.03669 -5.9064 -30.5504
-2.05352 -6.05787 -30.8027
-2.05658 -6.16974 -30.8487
-2.0632 -6.29277 -30.948
-2.33702 -13.2042 -35.0554
-2.25022 -16.5391 -33.7534
-2.25321 -16.6737 -33.7981
-1.93927 -15.1263 -29.0891
-1.71501 -13.4629 -25.7252
-1.54632 -12.2932 -23.1947
-2.07848 0.692827 -29.6926
-2.07919 0.594055 -29.7027
-2.10014 -1.80012 -30.002
-2.10073 -1.90066 -30.0104
-2.10438 -2.20459 -30.0625
-2.10475 -2.3052 -30.0678
-2.10507 -2.40579 -30.0724
-2.10546 -2.5065 -30.0779
-2.08473 -2.5811 -29.7819
-2.12247 -4.34601 -30.321
-2.1233 -4.44881 -30.3328
-2.12403 -4.5515 -30.3433
-2.12709 -4.86192 -30.387
-2.12796 -4.96525 -30.3995
-2.12874 -5.06844 -30.4106
-2.12966 -5.17204 -30.4238
-2.13058 -5.27573 -30.4369
-2.13153 -5.37958 -30.4505
-2.13249 -5.48353 -30.4641
-2.13344 -5.58759 -30.4778
-2.13441 -5.69175 -30.4915
-2.13537 -5.796 -30.5053
-2.13634 -5.90035 -30.5191
-2.15088 -6.04294 -30.7268
-2.155 -6.15715 -30.7857
-2.44545 -12.3437 -34.935
-2.45182 -12.9596 -35.026
-2.45246 -13.0798 -35.0351
-2.36102 -16.5271 -33.7289
-1.85993 -13.9052 -26.5704
-2.17748 0.692836 -29.693
-2.20204 0.600555 -30.0278
-2.19961 -1.79968 -29.9946
-2.19992 -1.89993 -29.9988
-2.18146 -2.57809 -29.7472
-2.32758 -15.3409 -31.7397
-2.44124 -16.201 -33.2897
-2.4821 -17.3747 -33.8468
-2.29957 -1.79967 -29.9945
-2.30494 -2.30494 -30.0644
-2.30552 -2.40576 -30.072
-2.30557 -2.50606 -30.0727
-2.31309 -3.31878 -30.1707
-2.31381 -3.42042 -30.1801
-2.31515 -3.52306 -30.1976
-2.31673 -3.62618 -30.2182
-2.31787 -3.72875 -30.2331
-2.31898 -3.83136 -30.2476
-2.32004 -3.93399 -30.2614
-2.3211 -4.03669 -30.2752
-2.32175 -4.13877 -30.2837
-2.32236 -4.24084 -30.2917
-2.32314 -4.34326 -30.3018
-2.32414 -4.44618 -30.3149
-2.32507 -4.54906 -30.3271
-2.32591 -4.65182 -30.338
-2.3268 -4.75477 -30.3496
-2.32804 -4.85853 -30.3658
-2.32917 -4.96214 -30.3804
-2.3302 -5.06565 -30.3939
-2.33122 -5.16922 -30.4072
-2.33223 -5.27286 -30.4204
-2.33326 -5.37664 -30.4338
-2.3343 -5.48053 -30.4474
-2.33535 -5.58453 -30.4611
-2.3364 -5.68862 -30.4748
-2.33745 -5.79282 -30.4885
-2.33851 -5.89711 -30.5023
-2.34233 -6.00858 -30.5521
-2.34687 -6.12228 -30.6114
-2.35143 -6.23641 -30.6709
-2.35132 -6.33833 -30.6693
-2.34932 -6.43508 -30.6433
-2.34578 -6.52738 -30.5971
-2.34556 -6.62876 -30.5943
-2.70863 -15.663 -35.33
-2.50178 -15.8808 -32.6319
-2.5669 -16.629 -33.4813
-2.49401 -16.699 -32.5305
-1.80459 -12.4752 -23.5381
-2.22266 14.6325 -27.7833
-2.44346 0.610864 -30.5432
-2.39905 -1.79929 -29.9881
-2.39959 -1.89967 -29.9948
-2.39971 -1.99976 -29.9964
-2.39375 -2.69297 -29.9219
-2.4103 -3.21373 -30.1287
-2.41211 -3.31666 -30.1514
-2.41307 -3.41851 -30.1633
-2.41465 -3.52137 -30.1832
-2.41646 -3.62468 -30.2057
-2.41783 -3.72749 -30.2229
-2.41914 -3.8303 -30.2392
-2.42031 -3.93301 -30.2539
-2.42145 -4.03575 -30.2681
-2.42249 -4.13841 -30.2811
-2.42343 -4.241 -30.2929
-2.42447 -4.34385 -30.3059
-2.42547 -4.44669 -30.3184
-2.4264 -4.5495 -30.33
-2.42725 -4.65224 -30.3407
-2.42815 -4.75512 -30.3518
-2.42942 -4.85884 -30.3678
-2.43058 -4.96244 -30.3823
-2.43167 -5.06597 -30.3958
-2.43273 -5.16955 -30.4091
-2.43378 -5.27319 -30.4222
-2.43485 -5.37696 -30.4356
-2.43593 -5.48083 -30.4491
-2.43702 -5.58483 -30.4627
-2.43811 -5.68892 -30.4764
-2.43921 -5.79312 -30.4901
-2.44031 -5.89741 -30.5038
-2.44453 -6.00948 -30.5567
-2.44984 -6.1246 -30.623
-2.45568 -6.24152 -30.696
-2.45686 -6.34689 -30.7108
-2.45595 -6.44688 -30.6994
-2.45188 -6.53836 -30.6486
-2.45024 -6.63607 -30.628
-2.44907 -6.73496 -30.6134
-2.44898 -6.83673 -30.6122
-2.4494 -6.93998 -30.6176
-2.44989 -7.04342 -30.6236
-2.44999 -7.14582 -30.6249
-2.45022 -7.24857 -30.6277
-2.45051 -7.35153 -30.6314
-2.45147 -7.45655 -30.6434
-2.45294 -7.56324 -30.6618
-2.45413 -7.66915 -30.6766
-2.45539 -7.7754 -30.6924
-2.45658 -7.88152 -30.7072
-2.45777 -7.98774 -30.7221
-2.45893 -8.09399 -30.7367
-2.4601 -8.20032 -30.7512
-2.46125 -8.30671 -30.7656
-2.46239 -8.41317 -30.7799
-2.46353 -8.51972 -30.7942
-2.46467 -8.62635 -30.8084
-2.46581 -8.73307 -30.8226
-2.46694 -8.83988 -30.8368
-2.46808 -8.94679 -30.851
-2.46921 -9.05378 -30.8652
-2.47068 -9.16209 -30.8835
-2.47161 -9.26854 -30.8951
-2.47249 -9.37487 -30.9062
-2.80869 -14.1605 -35.1087
-2.80943 -14.2813 -35.1178
-2.81752 -14.9094 -35.219
-2.81825 -15.0307 -35.2282
-2.81875 -15.1508 -35.2343
-2.81965 -15.2731 -35.2456
-2.8255 -15.658 -35.3187
-2.82573 -15.777 -35.3216
-2.60939 -15.5476 -32.6174
-2.59729 -15.5837 -32.4661
-2.55529 -15.4382 -31.9412
-2.61503 -16.126 -32.6878
-2.65143 -16.4609 -33.1428
-1.91497 -12.6867 -23.9372
-2.31483 14.6298 -27.778
-2.53553 0.608528 -30.4264
-2.5267 0.50534 -30.3204
-2.48417 -1.09304 -29.8101
-2.48445 -1.19253 -29.8134
-2.50426 -2.50426 -30.0511
-2.49901 -2.59897 -29.9881
-2.50995 -3.21273 -30.1193
-2.51156 -3.31526 -30.1387
-2.57282 -9.15925 -30.8739
-2.6765 -9.84954 -32.1181
-2.71097 -10.0848 -32.5316
-2.7867 -10.478 -33.4404
-2.76696 -10.5145 -33.2036
-2.7784 -10.6691 -33.3408
-2.75198 -10.6777 -33.0238
-2.70523 -10.6045 -32.4628
-2.68124 -10.6177 -32.1749
-2.65806 -10.6322 -31.8967
-2.94291 -15.6563 -35.3149
-2.94333 -15.7763 -35.32
-2.94359 -15.8954 -35.3231
-2.73708 -15.6561 -32.8449
-2.73202 -15.7364 -32.7843
-2.6998 -15.8748 -32.3976
-2.7167 -16.0829 -32.6004
-2.50963 -15.4593 -30.1156
-1.97641 -12.57 -23.7169
-2.62391 0.403679 -30.2759
-2.58208 -0.993108 -29.7932
-2.58295 -1.09279 -29.8032
-2.60128 -2.30113 -30.0148
-2.54654 -2.74243 -29.3831
-2.65283 -7.14224 -30.6096
-2.65318 -7.24523 -30.6136
-2.85284 -11.0822 -32.9174
-2.87481 -11.2781 -33.1709
-2.91213 -11.5365 -33.6015
-2.93242 -11.7297 -33.8356
-3.01654 -12.5302 -34.8062
-3.01732 -12.6495 -34.8152
-3.01784 -12.7678 -34.8212
-3.07056 -16.77 -35.4296
-2.8718 -15.7949 -33.1361
-2.79807 -15.8198 -32.2854
-2.47436 -14.6558 -28.5503
-2.35731 -14.1438 -27.1997
-2.74833 0.50895 -30.537
-2.6988 0.399822 -29.9867
-2.67098 -0.296775 -29.6775
-2.7005 -2.7005 -30.0055
-2.8059 -7.27457 -31.1767
-2.98381 -10.3881 -33.1534
-3.00366 -10.5684 -33.3741
-3.13391 -12.8839 -34.8212
-2.35234 -13.5913 -26.1371
-2.16048 -12.5628 -24.0054
-2.487 14.0338 -26.6464
-2.8054 0.500964 -30.0579
-2.79839 0.399769 -29.9827
-2.7827 0.198764 -29.8147
-2.76796 0.0988557 -29.6567
-2.76652 -0 -29.6413
-2.78159 -1.29145 -29.8028
-3.36929 -16.2448 -36.0995
-2.5724 -14.1482 -27.5614
-2.45341 -13.669 -26.2865
-2.90596 0.501027 -30.0616
-2.89755 0.399663 -29.9747
-2.86471 -0.592699 -29.635
-2.86618 -0.691837 -29.6501
-2.88014 -1.48973 -29.7946
-3.28728 -7.7081 -34.0063
-3.05607 -7.48209 -31.6145
-3.14971 -7.92858 -32.5832
-3.36491 -13.1115 -34.8094
-3.37774 -14.0933 -34.9422
-3.54577 -16.6285 -36.6804
-3.27815 -16.2777 -33.9119
-2.59708 -13.9705 -26.8664
-2.2542 -12.3593 -23.3193
-2.41363 12.7118 -24.1363
-3.00397 0.500662 -30.0397
-2.99923 0.399897 -29.9923
-3.04491 0.101497 -30.4491
-2.98257 -0 -29.8257
-2.98305 -0.0994351 -29.8305
-2.9149 -0.194327 -29.149
-2.91122 -0.291122 -29.1122
-2.95149 -0.491914 -29.5148
-2.95972 -0.591945 -29.5972
-2.96086 -0.690868 -29.6086
-2.96264 -0.790038 -29.6264
-3.76334 -4.26512 -37.6334
-3.41488 -9.10635 -34.1488
-3.49347 -14.2068 -34.9347
-2.51532 12.82 -24.3418
-3.10142 0.400184 -30.0138
-3.13531 0.303418 -30.3418
-3.04534 -0.392947 -29.471
-3.88483 -4.26078 -37.5951
-3.37859 -7.84706 -32.6961
-3.45799 -8.25455 -33.4644
-3.52528 -8.87007 -34.1156
-3.5939 -13.2163 -34.7797
-3.52864 -14.2284 -34.1481
-2.62425 12.9572 -24.6023
-3.11384 -0.194615 -29.1922
-3.10804 -0.291379 -29.1379
-3.15327 -0.591238 -29.5619
-3.0505 -0.857952 -28.5984
-3.16532 -1.187 -29.6749
-3.17033 -1.28795 -29.7219
-3.16965 -1.38672 -29.7155
-3.17201 -1.48688 -29.7376
-3.17124 -1.58562 -29.7304
-3.56879 -4.57252 -33.4574
-3.4948 -7.86331 -32.7638
-3.53115 -8.16578 -33.1045
-3.83068 -13.7665 -35.9126
-3.71866 -14.2936 -34.8624
-3.71911 -14.4116 -34.8667
-3.52889 -14.2258 -33.0833
-2.84808 -13.8844 -26.7007
-3.2158 -0.0974484 -29.2345
-3.24071 -0.196407 -29.461
-3.23123 -0.293748 -29.3748
-3.23048 -0.391574 -29.368
-3.23548 -0.490225 -29.4135
-3.24672 -0.590313 -29.5156
-3.14463 -0.857627 -28.5876
-3.2652 -1.38524 -29.6837
-3.26725 -1.78213 -29.7022
-4.13476 -4.26006 -37.5887
-3.85561 -13.4362 -35.051
-3.78625 -14.1124 -34.4204
-3.78184 -14.2106 -34.3804
-3.8156 -14.5686 -34.6872
-3.81986 -14.7007 -34.726
-3.74902 -14.5417 -34.082
-4.39702 -19.0537 -39.9729
-3.77969 0.444669 -33.3502
-3.32918 -0.293751 -29.3751
-3.34655 -0.688996 -29.5284
-3.32189 -0.781621 -29.3108
-3.28949 -0.870748 -29.0249
-3.93956 -14.0202 -34.7608
-3.94263 -14.1471 -34.7879
-3.88116 -14.269 -34.2456
-3.92076 -14.5299 -34.5949
-3.91543 -14.6253 -34.5479
-3.90598 -15.0495 -34.4645
-3.95089 -15.4549 -34.8608
-4.05077 -16.0839 -35.7421
-2.80717 12.6724 -24.0614
-3.98701 0.455659 -34.1744
-3.42561 -0.195749 -29.3624
-3.42552 -0.293616 -29.3616
-3.4286 -0.39184 -29.388
-3.43063 -0.49009 -29.4054
-3.43759 -0.589301 -29.465
-3.44061 -0.688122 -29.491
-3.40874 -1.3635 -29.2178
-3.46405 -1.68254 -29.6918
-3.46212 -1.78052 -29.6753
-3.46165 -1.87918 -29.6713
-3.46156 -1.97804 -29.6706
-3.46234 -2.0774 -29.6772
-4.05447 -14.0169 -34.7526
-4.05518 -14.1352 -34.7587
-3.99862 -14.0523 -34.2739
-4.04418 -14.3279 -34.6644
-4.01812 -15.0392 -34.441
-4.05707 -15.4169 -34.7749
-4.08497 -15.7563 -35.014
-4.16693 0.462992 -34.7244
-4.24291 0.353576 -35.3576
-3.52081 -0.195601 -29.3401
-3.52082 -0.293402 -29.3402
-3.52262 -0.391402 -29.3551
-3.52448 -0.489511 -29.3707
-3.53214 -0.58869 -29.4345
-3.53785 -0.786188 -29.4821
-3.55371 -1.57942 -29.6142
-3.52562 -1.76281 -29.3802
-3.52589 -1.86089 -29.3824
-3.55358 -1.97421 -29.6132
-3.55552 -2.07405 -29.6293
-3.55872 -2.17477 -29.656
-3.56045 -2.27473 -29.6704
-3.56266 -2.37511 -29.6889
-4.13866 -8.50724 -34.4888
-4.16658 -8.79611 -34.7215
-4.17095 -14.1349 -34.7579
-4.1592 -14.3261 -34.66
-4.13022 -15.0294 -34.4185
-4.16168 -15.3751 -34.6806
-4.19591 -15.7347 -34.9659
-4.35885 0.353421 -35.3421
-3.62174 -0.293655 -29.3655
-3.63387 -0.785703 -29.4639
-3.58457 -0.871921 -29.064
-3.31233 -1.16379 -26.8567
-3.61803 -1.76012 -29.3354
-3.61727 -1.85752 -29.3292
-3.64579 -1.9707 -29.5605
-3.65791 -2.27384 -29.6588
-3.65886 -2.37332 -29.6665
-3.66028 -2.47316 -29.6779
-4.35676 -8.94901 -35.3251
-4.27377 -8.89406 -34.6522
-4.29452 -13.4639 -34.8204
-4.26947 -15.0009 -34.6173
-4.26756 -15.2248 -34.6018
-4.29017 -15.5374 -34.7852
-4.3109 -15.729 -34.9533
-4.432 -16.2906 -35.9351
-4.6292 -18.0164 -37.5341
-3.72864 -15.7208 -30.2322
-4.08196 -17.3207 -33.097
-4.47494 0.353285 -35.3285
-3.65236 -0.961147 -28.8344
-3.46205 -1.09328 -27.332
-3.41628 -1.16873 -26.9706
-3.68921 -1.55335 -29.1254
-3.6908 -1.65115 -29.1379
-3.73145 -1.76753 -29.4588
-3.73267 -1.86634 -29.4685
-3.73857 -1.96767 -29.515
-3.74433 -2.06923 -29.5605
-3.75163 -2.17199 -29.6181
-3.75747 -2.47202 -29.6643
-3.75889 -2.57187 -29.6754
-3.78036 -3.58139 -29.8449
-3.93223 -4.65659 -31.044
-3.84115 -4.64981 -30.3248
-3.81921 -5.92983 -30.1517
-4.60344 -8.96459 -36.3429
-4.39254 -14.2179 -34.6779
-4.39013 -14.3257 -34.6589
-4.38122 -14.4119 -34.5886
-4.3951 -14.9202 -34.6982
-4.40401 -15.5299 -34.7685
-4.42457 -15.7189 -34.9308
-4.49577 -16.0901 -35.4929
-3.02 -12.2389 -23.8421
-3.61395 -14.8362 -28.5312
-4.02679 -16.637 -31.7904
-4.73475 1.21404 -36.4211
-4.558 0.350615 -35.0615
-3.82655 -0.686817 -29.435
-3.78004 -0.872318 -29.0773
-3.72035 -0.953937 -28.6181
-3.62752 -1.11616 -27.904
-3.66054 -1.4079 -28.158
-3.752 -1.53928 -28.8616
-3.84979 -2.17168 -29.6138
-3.85269 -2.2721 -29.6361
-3.854 -2.37169 -29.6461
-3.8557 -2.57047 -29.6592
-3.99322 -4.40278 -30.717
-3.95728 -4.66756 -30.4406
-4.94117 -14.8235 -38.009
-4.50386 -14.2045 -34.6451
-4.49954 -14.4216 -34.6118
-4.51458 -14.9328 -34.7276
-4.5018 -15.1214 -34.6293
-4.55212 -15.874 -35.0163
-3.09133 -11.7312 -23.7795
-3.09136 -11.8106 -23.7797
-3.09153 -11.8905 -23.781
-3.09339 -12.0563 -23.7953
-3.09463 -12.1405 -23.8048
-4.18516 16.5314 -31.3887
-4.66323 0.349742 -34.9742
-4.59707 0.229854 -34.478
-3.84342 -0.384342 -28.8256
-3.92519 -0.785039 -29.439
-3.87445 -0.871751 -29.0584
-3.62391 -1.26837 -27.1793
-3.69833 -1.38687 -27.7375
-3.95066 -2.27163 -29.6299
-3.95266 -2.3716 -29.645
-3.95349 -2.66861 -29.6512
-3.97842 -4.07788 -29.8381
-4.00256 -4.30275 -30.0192
-4.05838 -4.76859 -30.4378
-4.03862 -4.84634 -30.2896
-4.01872 -6.12854 -30.1404
-5.03106 -14.7159 -37.733
-4.61774 -14.4304 -34.6331
-4.6222 -15.3688 -34.6665
-4.66528 -15.862 -34.9896
-3.54415 -13.1133 -26.5811
-4.1696 16.0682 -30.5092
-4.73381 0.346377 -34.6377
-4.69431 0.228991 -34.3486
-4.04755 -2.3693 -29.6162
-4.0495 -2.46921 -29.6305
-4.0512 -2.66786 -29.6429
-4.06999 -3.57365 -29.7804
-4.07044 -3.67333 -29.7837
-4.07677 -4.07677 -29.83
-5.11109 -14.5853 -37.3983
-4.74071 -15.0315 -34.6881
-4.7403 -15.3771 -34.6851
-4.75225 -15.6477 -34.7726
-4.77825 -15.8498 -34.9628
-3.72848 -13.4589 -27.2815
-3.6489 -13.2606 -26.6993
-3.59919 -13.1678 -26.3355
-3.39984 -12.5214 -24.8769
-3.35069 -12.4221 -24.5172
-3.30186 -12.3216 -24.16
-4.82077 -18.9303 -35.2739
-4.26921 16.0604 -30.4944
-4.82595 0.229807 -34.4711
-4.11878 -0.784529 -29.4199
-4.10405 -0.87944 -29.3147
-4.14482 -2.46716 -29.6059
-4.14654 -2.5669 -29.6181
-4.28621 -2.85747 -30.6158
-4.17583 -4.0764 -29.8273
-4.84649 -14.3087 -34.6178
-4.84347 -14.5304 -34.5962
-4.85484 -15.2581 -34.6774
-4.85532 -15.3752 -34.6809
-4.86397 -15.6342 -34.7427
-4.88635 -15.8225 -34.9025
-4.88682 -15.9403 -34.9058
-4.89004 -16.7659 -34.9289
-3.94253 -13.8927 -28.1609
-3.89569 -14.4697 -27.8263
-4.20069 15.4351 -29.3072
-3.9771 -0.369963 -27.7472
-4.20005 -0.879081 -29.3027
-4.18565 -0.973407 -29.2022
-4.23325 -2.16585 -29.5343
-4.23679 -2.26619 -29.559
-4.23928 -2.36611 -29.5764
-4.24221 -2.56506 -29.5968
-4.4284 -2.88361 -30.8958
-4.26028 -3.56674 -29.7229
-4.33688 -7.66518 -30.2573
-4.8485 -9.47149 -33.8267
-4.95934 -14.3013 -34.6
-4.95876 -14.5303 -34.596
-5.09861 -15.6515 -35.5717
-5.05529 -15.6361 -35.2694
-4.99694 -15.5719 -34.8624
-4.99574 -15.8005 -34.854
-4.99328 -15.9088 -34.8368
-4.14918 14.8993 -28.2899
-4.11996 -1.49817 -28.0907
-4.19579 -1.6211 -28.6077
-4.17564 -1.70822 -28.4703
-4.25288 -1.83647 -28.9969
-4.25136 -1.93243 -28.9865
-4.27722 -2.0414 -29.1629
-4.2974 -2.1487 -29.3005
-4.3209 -2.25865 -29.4607
-4.33191 -2.36286 -29.5358
-4.3393 -2.56413 -29.5862
-4.54671 -2.89336 -31.0003
-4.56486 -3.00865 -31.124
-4.35408 -3.46348 -29.6869
-4.35931 -3.56671 -29.7226
-4.38689 -5.18451 -29.9106
-4.81277 -8.53173 -32.8144
-4.96012 -9.46931 -33.819
-5.07426 -14.5308 -34.5972
-5.0741 -14.6457 -34.5961
-5.10601 -15.8983 -34.8137
-3.78476 -13.4187 -25.8052
-4.1191 14.4626 -27.4607
-4.20503 -1.30823 -28.0335
-4.35566 -1.45189 -29.0377
-4.20041 -1.49348 -28.0027
-4.28719 -1.61961 -28.5813
-4.41312 -2.25559 -29.4208
-4.4254 -2.36021 -29.5026
-4.43161 -2.46201 -29.5441
-4.53583 -2.7215 -30.2389
-4.57374 -2.84588 -30.4916
-4.56253 -2.9403 -30.4169
-4.65821 -3.83008 -31.0547
-5.65073 -16.4499 -37.6715
-5.33247 -15.7604 -35.5498
-5.22392 -15.7878 -34.8261
-5.22262 -15.9 -34.8175
-5.22072 -16.0102 -34.8048
-4.98969 -15.5235 -33.2646
-4.74522 -14.8683 -31.6348
-4.82291 -15.219 -32.1527
-3.53746 12.2273 -23.0704
-4.4928 -0.976695 -29.3009
-4.4233 -1.05774 -28.8476
-4.44951 -1.45093 -29.0185
-4.60983 -2.70577 -30.0641
-4.63779 -2.92383 -30.2465
-4.65218 -3.03403 -30.3403
-4.78133 -3.84585 -31.1826
-5.20144 -8.59368 -33.9224
-5.92243 -16.866 -38.6245
-5.52417 -15.9721 -36.0272
-5.39632 -16.0716 -35.1934
-5.33991 -16.0197 -34.8255
-5.31215 -16.1674 -34.6445
-5.20946 -15.9681 -33.9747
-5.16261 -16.049 -33.6692
-5.19043 -16.3611 -33.8506
-4.57842 -0.681892 -29.2239
-4.57996 -0.779567 -29.2338
-4.58252 -0.877503 -29.2501
-4.57262 -1.26477 -29.1869
-4.41018 -1.50134 -28.1501
-4.44864 -1.60908 -28.3956
-4.65536 -2.67436 -29.7151
-4.70077 -2.80046 -30.0049
-4.7692 -3.75448 -30.4417
-4.82023 -3.89721 -30.7675
-4.65398 -4.15888 -29.7063
-5.10542 -8.25557 -32.5878
-5.52127 -9.98527 -35.2421
-5.12565 -13.632 -32.7169
-5.732 -16.2203 -36.5872
-5.45567 -16.0188 -34.8234
-5.23265 -15.8093 -33.3999
-5.21119 -15.8553 -33.2629
-5.24046 -16.0559 -33.4497
-5.20995 -16.295 -33.255
-5.1796 -16.3102 -33.0613
-5.09128 -16.1404 -32.4975
-5.05247 -16.1249 -32.2498
-4.3484 15.2194 -27.1775
-4.34887 15.1304 -27.1804
-4.34939 15.0417 -27.1837
-4.35072 14.9556 -27.192
-4.21852 13.886 -26.3658
-4.67313 -0.486784 -29.2071
-4.66685 -1.26394 -29.1678
-4.66115 -1.94215 -29.1322
-4.67555 -2.04555 -29.2222
-4.64061 -2.12695 -29.0038
-4.64771 -2.22703 -29.0482
-4.80124 -2.90075 -30.0078
-4.74739 -3.56054 -29.6712
-4.83147 -3.72426 -30.1967
-4.84041 -3.83199 -30.2526
-5.45356 -14.4292 -34.0848
-5.89625 -16.0918 -36.8515
-6.07157 -17.0763 -37.9473
-5.80762 -16.5759 -36.2977
-5.69637 -16.4957 -35.6023
-5.4436 -16.5576 -34.0225
-5.58295 -17.7956 -34.8934
-4.41257 16.3895 -27.0157
-4.43817 15.2166 -27.1725
-4.43766 15.1243 -27.1693
-4.43825 15.0357 -27.173
-4.43885 14.9472 -27.1767
-4.44029 14.8614 -27.1854
-4.10699 13.3268 -25.1448
-4.09398 13.201 -25.0652
-4.77151 -0.681645 -29.2133
-4.76589 -1.06989 -29.1789
-4.63815 -1.60915 -28.3968
-4.68515 -1.72108 -28.6846
-4.77133 -1.94748 -29.2122
-4.85061 -2.67279 -29.6976
-4.86182 -2.77819 -29.7663
-4.88069 -2.98817 -29.8817
-4.96478 -3.85024 -30.3966
-6.09008 -15.9088 -37.2862
-5.94695 -15.899 -36.4099
-6.03875 -16.3909 -36.9719
-6.13078 -16.8909 -37.5354
-4.44617 18.8518 -26.677
-4.44705 18.7665 -26.6823
-4.44763 18.68 -26.6858
-4.4487 18.5956 -26.6922
-4.44984 18.5113 -26.699
-4.45116 18.4278 -26.707
-4.45256 18.3446 -26.7154
-4.45406 18.2616 -26.7244
-4.46374 18.0335 -26.7824
-4.46462 17.9478 -26.7877
-4.46521 17.8608 -26.7913
-4.46629 17.7758 -26.7977
-4.46744 17.691 -26.8046
-4.44201 14.5698 -26.6521
-4.04805 12.8728 -24.2883
-3.98219 12.5837 -23.8931
-4.86046 -1.0693 -29.1628
-4.8038 -1.53722 -28.8228
-4.8667 -1.94668 -29.2002
-4.87734 -2.04848 -29.264
-4.82267 -2.12197 -28.936
-4.86198 -2.23651 -29.1719
-4.85206 -2.32899 -29.1124
-4.94446 -2.67001 -29.6668
-4.94367 -2.76846 -29.662
-4.952 -2.87216 -29.712
-4.93765 -3.1601 -29.6259
-4.9179 -3.24582 -29.5074
-5.79458 -8.92366 -34.7675
-6.0967 -15.9734 -36.5802
-6.10177 -16.1087 -36.6106
-6.0984 -16.2217 -36.5904
-6.20779 -16.761 -37.2468
-5.68448 -16.7124 -34.1069
-4.61848 15.1233 -27.1676
-4.45037 14.311 -26.1786
-4.05508 12.6423 -23.8534
-4.11003 12.733 -24.1767
-4.9623 -0.7784 -29.19
-4.88216 -1.72312 -28.7186
-4.90708 -1.82813 -28.8652
-4.94644 -1.93978 -29.0967
-4.9636 -2.04384 -29.1976
-5.03609 -2.66616 -29.6241
-5.04281 -2.7686 -29.6636
-5.04452 -2.96736 -29.6736
-5.03706 -3.06174 -29.6298
-5.03123 -3.15685 -29.5954
-6.08093 -15.0235 -35.7702
-6.09906 -15.7858 -35.8768
-5.78302 -16.6687 -34.0178
-4.51852 14.2507 -26.0684
-4.19994 12.8421 -24.2304
-4.22071 12.8245 -24.3503
-4.98858 -1.72681 -28.7802
-5.13776 -2.76648 -29.6409
-5.14062 -2.86688 -29.6574
-5.1401 -2.96544 -29.6544
-5.1379 -3.06298 -29.6417
-5.13057 -4.24259 -29.5994
-5.22457 -8.43969 -30.1417
-6.26072 -15.8926 -36.1196
-4.55502 14.0948 -25.7831
-5.1352 -0.484453 -29.0672
-5.13843 -0.581709 -29.0854
-5.0365 -0.855254 -28.5085
-5.09702 -1.82724 -28.8511
-5.12958 -1.93569 -29.0354
-5.15079 -2.04088 -29.1554
-6.3765 -16.1217 -36.0934
-6.07957 -15.8298 -34.4127
-4.327 12.7406 -24.0389
-4.26457 12.4778 -23.6921
-5.22776 -0.290431 -29.0431
-5.12681 -1.04435 -28.4823
-5.21589 -1.15909 -28.9772
-5.20972 -1.83305 -28.9429
-5.22584 -1.9355 -29.0325
-5.24131 -2.03829 -29.1184
-5.2475 -2.13787 -29.1528
-5.31808 -2.85601 -29.5449
-5.31623 -2.95346 -29.5346
-6.18891 -15.8161 -34.3828
-4.48219 13.3651 -24.4483
-4.32568 12.5051 -23.5946
-4.32743 12.4315 -23.6042
-6.58041 0.95715 -35.8931
-6.60508 0.120092 -36.0277
-5.07092 -0.829788 -27.6596
-5.16694 -0.939443 -28.1833
-5.31608 -1.93312 -28.9968
-5.35248 -2.23831 -29.1954
-5.41112 -2.75475 -29.5152
-5.41052 -2.85282 -29.5119
-5.414 -2.95309 -29.5309
-5.41757 -3.05354 -29.5504
-5.42254 -3.15493 -29.5775
-5.42001 -4.23746 -29.5637
-6.09451 -7.86746 -33.2428
-4.98324 -6.70473 -27.1813
-6.40357 -15.8343 -34.9285
-6.31583 -15.847 -34.45
-6.2876 -16.9194 -34.296
-4.50851 13.2035 -24.1527
-4.37942 12.3562 -23.4612
-4.95089 -1.32613 -26.5226
-5.40269 -1.83306 -28.943
-5.40849 -1.9316 -28.974
-5.41842 -2.03191 -29.0273
-5.44126 -2.2348 -29.1496
-5.50468 -2.75234 -29.4893
-6.20392 -7.86569 -33.2353
-6.51552 -15.8234 -34.9045
-6.22997 -15.3524 -33.3748
-4.52699 13.025 -23.8263
-4.42025 12.3302 -23.2645
-4.42434 12.2639 -23.286
-5.35625 -0.563816 -28.1908
-5.5127 -0.870427 -29.0142
-5.20053 -1.36856 -27.3712
-5.59978 -2.84901 -29.4725
-5.60832 -4.42762 -29.5175
-5.54669 -10.6068 -29.1931
-6.3224 -15.3069 -33.2758
-5.16436 17.0958 -26.7122
-4.54197 12.8428 -23.493
-4.49641 12.3264 -23.2573
-4.50046 12.2599 -23.2782
-5.65478 -0.682474 -29.2489
-5.43934 -1.0316 -28.1345
-5.45379 -1.12837 -28.2093
-5.70744 -4.42818 -29.5212
-5.78337 -7.77764 -29.914
-5.31393 -9.8949 -27.4858
-5.59862 -10.5215 -28.9584
-6.68458 -15.6742 -34.5754
-6.67369 -15.7637 -34.5191
-6.45237 -15.3522 -33.3743
-5.25212 17.0917 -26.7057
-4.61908 12.8395 -23.4868
-4.5469 12.2535 -23.1198
-4.5568 12.203 -23.1702
-5.89181 -0.699028 -29.9583
-5.59874 -0.948939 -28.4682
-5.54831 -1.41059 -28.2118
-5.78747 -2.94278 -29.4278
-5.40453 -9.89304 -27.4807
-5.64135 -10.4222 -28.6848
-5.98444 -11.9689 -30.4293
-5.34071 17.0903 -26.7035
-4.66867 12.761 -23.3433
-4.60671 12.2078 -23.0335
-4.62165 12.1703 -23.1082
-5.26565 -0.438804 -26.3282
-5.6077 -1.40193 -28.0385
-6.91216 -15.6676 -34.5608
-6.91119 -15.7805 -34.5559
-6.83062 -15.7104 -34.1531
-5.61196 -15.0588 -28.0598
-5.4298 16.9125 -26.7039
-4.72172 12.6945 -23.2216
-4.68911 12.2224 -23.0612
-4.7003 12.1746 -23.1162
-5.84523 -1.05406 -28.747
-5.76508 -1.13411 -28.3529
-5.4711 -1.34535 -26.907
-5.52457 -1.44907 -27.17
-5.67442 -1.5814 -27.907
-5.80108 -1.71179 -28.5299
-5.95358 -2.83039 -29.2799
-4.78001 12.6439 -23.1291
-4.76618 12.2229 -23.0621
-5.43619 -0.350722 -26.3041
-5.92029 -1.05037 -28.6466
-5.83494 -1.12934 -28.2336
-5.97985 -1.92898 -28.9347
-5.86675 -2.08175 -28.3875
-6.02627 -2.62434 -29.1594
-6.05568 -2.93017 -29.3017
-6.95301 -11.9995 -33.6436
-4.85587 12.6407 -23.1232
-5.26961 0.585512 -25.0934
-5.52277 -0.525978 -26.2989
-5.67668 -0.630742 -27.0318
-5.70794 -0.724818 -27.1807
-5.8202 -0.923842 -27.7153
-5.7469 -1.27709 -27.3662
-5.80553 -1.38227 -27.6454
-5.86131 -1.48859 -27.911
-5.84854 -1.57818 -27.8502
-5.92176 -1.69193 -28.1989
-6.03592 -1.91617 -28.7425
-5.90809 -2.06314 -28.1338
-6.5121 -8.9929 -31.01
-4.87417 -9.36151 -23.2104
-5.34977 -11.294 -25.4751
-5.23481 -13.3779 -24.9277
-4.93181 12.6378 -23.1178
-5.97748 -1.30757 -28.0194
-5.99063 -1.68486 -28.0811
-6.45402 -8.77344 -30.2532
-5.42542 -11.0204 -25.4317
-6.98558 -15.0626 -32.7449
-4.9776 12.4823 -22.9735
-5.43149 0.58493 -25.0684
-5.24859 -0 -24.2243
-5.69115 -0.437781 -26.2668
-5.75178 -0.707912 -26.5467
-6.19947 -1.04914 -28.613
-6.13599 -1.1328 -28.32
-6.56448 -3.02976 -30.2976
-6.58132 -8.80884 -30.3753
-5.03134 -9.98527 -23.2215
-5.16025 -10.5587 -23.8165
-5.05299 12.4794 -22.9682
-5.54535 -0 -25.2061
-5.38971 -0.0816623 -24.4987
-5.77288 -0.43734 -26.2404
-6.22929 -1.1326 -28.3149
-6.24927 -1.79903 -28.4058
-6.12277 -2.04092 -27.8308
-6.50708 -6.70427 -29.5776
-5.35536 -10.7107 -24.3425
-5.32925 -10.7393 -24.2239
-7.50781 -16.3807 -34.1264
-5.1339 12.5666 -22.9876
-5.67716 0.593136 -25.4201
-5.70559 -0.510949 -25.5474
-5.88962 -0.703238 -26.3714
-6.05837 -0.904235 -27.127
-6.25892 -1.02758 -28.025
-6.17884 -1.2911 -27.6665
-6.35431 -1.70713 -28.4521
-6.31024 -1.88365 -28.2548
-5.92469 -3.09499 -26.5285
-6.60434 -6.70291 -29.5717
-5.18105 -9.8208 -23.1987
-7.6161 -16.2553 -34.1019
-5.92259 15.2419 -26.1291
-5.94441 15.2107 -26.2254
-5.92974 15.086 -26.1606
-6.01587 15.2166 -26.5406
-6.02937 15.1621 -26.6001
-6.04757 15.1189 -26.6804
-5.4883 -0.322841 -24.2131
-5.63677 -0.414469 -24.8681
-5.68702 -0.501796 -25.0898
-5.90743 -0.694992 -26.0622
-5.95231 -0.787806 -26.2602
-6.05214 -0.89002 -26.7006
-6.1763 -0.999107 -27.2484
-6.4251 -1.51179 -28.3461
-6.40503 -3.3909 -28.2575
-6.2575 -3.40481 -27.6066
-6.46755 -3.61422 -28.5333
-6.90189 -13.8038 -30.4495
-7.72442 -16.4712 -34.0783
-7.72735 -16.5911 -34.0913
-7.72834 -16.7069 -34.0956
-5.83119 16.6485 -25.353
-6.13309 15.6438 -26.6656
-5.97599 15.1565 -25.9826
-6.07027 15.3076 -26.3925
-6.04122 15.1468 -26.2662
-6.06827 15.1267 -26.3838
-6.0827 15.0745 -26.4465
-6.10995 15.0535 -26.565
-5.34155 -0.309655 -23.2241
-5.70648 -0.413513 -24.8108
-5.91313 -0.599883 -25.7093
-5.97737 -0.693029 -25.9886
-6.25551 -1.54121 -27.1979
-6.34054 -1.65405 -27.5676
-6.39356 -1.76055 -27.7981
-6.43206 -3.35586 -27.9655
-5.05205 -5.71101 -21.9654
-5.0388 -9.34734 -21.9078
-7.83678 -16.355 -34.0729
-7.83764 -16.4704 -34.0767
-6.02187 17.5494 -25.808
-5.92551 17.0993 -25.3951
-6.00819 17.2521 -25.7494
-6.09321 17.4092 -26.1138
-6.01884 17.0247 -25.795
-5.89893 16.6013 -25.2811
-6.09323 15.9295 -26.1139
-6.22084 15.641 -26.6607
-6.20768 14.9871 -26.6043
-5.30734 12.4343 -22.7457
-5.83822 -0.500418 -25.0209
-5.93456 -0.593456 -25.4338
-6.15183 -0.878832 -26.365
-6.23085 -0.979134 -26.7037
-6.38302 -1.18542 -27.3558
-6.57618 -1.31524 -28.1836
-6.60773 -1.88792 -28.3188
-6.53214 -1.95964 -27.9949
-6.80782 -4.2792 -29.1764
-6.80881 -4.37709 -29.1806
-5.02935 -5.60414 -21.5544
-4.94729 -6.14877 -21.2027
-6.38414 -10.7618 -27.3606
-5.45859 -9.35759 -23.394
-5.13619 -9.39188 -22.0122
-7.94608 -16.2327 -34.0546
-5.46621 -12.5723 -23.4266
-5.9735 17.2474 -25.2402
-5.9971 17.2311 -25.3398
-5.99739 17.1475 -25.3411
-6.09651 17.345 -25.7599
-6.08814 17.2354 -25.7245
-6.11902 17.2367 -25.855
-6.44869 17.9837 -27.248
-5.72168 15.7951 -24.1761
-5.7575 15.083 -24.3274
-6.01816 15.5964 -25.4288
-6.10429 15.7336 -25.7928
-6.20345 15.9018 -26.2118
-6.22403 15.8669 -26.2987
-6.26384 15.8801 -26.4669
-5.38115 12.4297 -22.7373
-6.24417 -0.87946 -26.3838
-6.40334 -1.08225 -27.0564
-6.54197 -1.38211 -27.6421
-6.52831 -1.47117 -27.5844
-6.49255 -1.55456 -27.4333
-6.55996 -1.84788 -27.7181
-6.64594 -3.46338 -28.0814
-6.73475 -3.60451 -28.4567
-6.9037 -4.27835 -29.1706
-5.2412 -9.44892 -22.1459
-8.00087 -15.1002 -33.8065
-5.78452 17.0322 -24.1021
-5.95169 16.9458 -24.7987
-6.08821 16.658 -25.3675
-5.78664 15.7525 -24.111
-5.83616 15.1578 -24.3173
-5.8371 15.0792 -24.3212
-5.91234 15.1914 -24.6347
-6.01215 15.3644 -25.0506
-6.30028 15.8382 -26.2512
-6.33932 15.8483 -26.4138
-5.4429 12.3977 -22.6787
-6.37195 -0.973492 -26.5498
-6.6701 -1.48224 -27.7921
-6.76631 -3.47713 -28.1929
-6.78481 -3.58087 -28.27
-6.83488 -3.70223 -28.4787
-5.71158 -9.51931 -23.7983
-5.77915 -10.3543 -24.0798
-8.11169 -15.0968 -33.7987
-5.99246 17.3207 -24.6265
-5.99295 17.24 -24.6286
-5.86938 16.6433 -24.1208
-5.99045 16.8225 -24.6183
-6.15925 17.2121 -25.312
-6.59486 17.9778 -27.1022
-5.97782 16.1319 -24.5664
-5.84335 15.689 -24.0138
-5.91624 15.1553 -24.3133
-5.91773 15.0781 -24.3195
-5.929 15.0255 -24.3657
-6.03644 15.2151 -24.8073
-6.1687 15.464 -25.3508
-6.43025 15.8554 -26.4257
-5.51678 12.3939 -22.6717
-6.30823 -0.345657 -25.9242
-6.41191 -0.614841 -26.3503
-6.88438 -1.4146 -28.292
-6.72229 -1.65755 -27.6259
-6.66252 -1.73408 -27.3802
-6.95258 -3.71439 -28.5722
-6.77907 -4.36461 -27.8592
-5.94127 17.0209 -24.0862
-5.94614 16.6331 -24.106
-6.03929 16.0776 -24.4836
-5.90797 15.6481 -23.9512
-6.51941 15.858 -26.43
-6.52493 15.7833 -26.4524
-6.56824 15.0004 -26.628
-5.59087 12.3906 -22.6657
-6.74718 -0.547069 -27.3534
-6.95275 -1.59725 -28.1868
-6.85444 -1.6673 -27.7883
-7.03291 -3.70653 -28.5118
-6.86863 -4.54815 -27.8458
-6.01825 -9.75933 -24.3983
-7.94191 -14.4886 -32.1969
-7.67971 -14.2178 -31.134
-4.97142 -10.6147 -20.1544
-6.15131 17.3877 -24.6052
-6.05733 16.8798 -24.2293
-6.02895 16.6399 -24.1158
-6.02779 16.5563 -24.1112
-6.13936 16.7809 -24.5574
-6.3263 16.7014 -25.3052
-6.2309 16.3665 -24.9236
-6.09893 15.9385 -24.3957
-6.22237 15.2655 -24.8895
-6.35424 15.5043 -25.417
-6.42085 15.5813 -25.6834
-6.54145 15.7867 -26.1658
-6.58962 15.8151 -26.3585
-6.6039 15.7613 -26.4156
-5.66487 12.3872 -22.6595
-6.81451 -0.454301 -27.258
-6.82123 -0.545698 -27.2849
-6.79167 -1.08667 -27.1667
-6.90642 -1.19711 -27.6257
-6.9947 -1.30568 -27.9788
-7.07011 -1.41402 -28.2804
-7.05752 -1.50561 -28.2301
-7.03473 -1.59454 -28.1389
-6.88447 -1.74406 -27.5379
-6.84467 -1.82525 -27.3787
-7.11167 -3.69807 -28.4467
-6.85209 -4.4767 -27.4084
-6.54158 -10.5538 -26.1663
-8.34482 -15.0207 -33.3793
-6.26481 17.3931 -24.7295
-6.15769 16.9337 -24.3067
-6.11446 16.6538 -24.136
-6.10936 16.5596 -24.1159
-6.32041 16.3832 -24.949
-6.22199 16.0462 -24.5605
-6.42913 15.4807 -25.3781
-6.45382 15.4552 -25.4756
-6.57712 15.6639 -25.9623
-6.64651 15.7417 -26.2362
-6.67569 15.723 -26.3514
-5.70315 13.1323 -22.5124
-5.81398 12.5459 -22.9499
-6.96722 -1.19176 -27.5022
-7.16908 -2.07526 -28.299
-7.09494 -2.14715 -28.0063
-7.04915 -2.22605 -27.8256
-7.01994 -2.30919 -27.7103
-7.19189 -2.46038 -28.389
-7.53074 -3.96355 -29.7266
-8.29273 -8.51096 -32.7345
-6.48065 17.8428 -25.2493
-6.36121 17.4314 -24.7839
